# .PCD v0.7 - Point Cloud Data file format
VERSION 0.7
FIELDS x y z normal_x normal_y normal_z
SIZE 4 4 4 4 4 4
TYPE F F F F F F
COUNT 1 1 1 1 1 1
WIDTH 897
HEIGHT 1
VIEWPOINT 0 0 0 1 0 0 0
POINTS 897
DATA ascii
0.279135 0.261889 0.89863 0.290065 0.257589 0.898214
0.322181 0.236398 0.920587 0.329203 0.269946 0.913025
0.323878 0.236017 0.919984 0.325216 0.26982 0.913383
0.279616 0.262635 0.895614 0.290412 0.257155 0.895479
0.325711 0.235775 0.920129 0.333158 0.267815 0.912765
0.214055 0.297912 0.848809 0.20609 0.300354 0.848488
0.329286 0.235183 0.919845 0.33513 0.266391 0.912921
0.280257 0.265175 0.895307 0.291783 0.260552 0.894889
0.654116 0.04895 1.094861 0.66528 0.049347 1.089521
0.332165 0.235052 0.919343 0.335392 0.267691 0.912625
0.333099 0.234807 0.920735 0.337084 0.268753 0.913647
0.3337 0.23423 0.920356 0.338115 0.268018 0.913233
0.33445 0.234068 0.91823 0.33759 0.270574 0.91083
0.334782 0.233235 0.916464 0.339439 0.265346 0.909608
0.210982 0.300759 0.83616 0.205276 0.251531 0.85108
0.280759 0.267467 0.893922 0.291881 0.262673 0.893601
0.336816 0.23431 0.920996 0.342162 0.266392 0.913995
0.337946 0.234235 0.923329 0.341095 0.266447 0.916748
0.280828 0.267527 0.891127 0.291987 0.262399 0.890878
0.33905 0.234409 0.923003 0.34199 0.269161 0.915978
0.339338 0.233532 0.921017 0.343062 0.266507 0.914184
0.281209 0.26815 0.890734 0.292302 0.263379 0.890408
0.340294 0.233569 0.919951 0.347769 0.267452 0.912191
0.340934 0.233025 0.919761 0.345976 0.267925 0.912313
0.342573 0.233692 0.922103 0.34027 0.272219 0.915442
0.34415 0.234297 0.924099 0.341888 0.270901 0.917777
0.344038 0.23306 0.920174 0.34385 0.267758 0.913809
0.345838 0.233861 0.923236 0.342484 0.263393 0.918463
0.28179 0.27051 0.8867 0.293348 0.265988 0.886258
0.347083 0.234154 0.923547 0.338967 0.257654 0.920867
0.282173 0.271139 0.88634 0.293434 0.266267 0.886019
0.347614 0.233806 0.920395 0.338579 0.251564 0.918975
0.282591 0.271827 0.886231 0.2934 0.26672 0.886026
0.34885 0.235216 0.923953 0.337252 0.245712 0.924407
0.282768 0.272082 0.884333 0.29386 0.266648 0.884167
0.347967 0.235852 0.920607 0.334732 0.242555 0.922095
0.227475 0.3005 0.844056 0.230793 0.350029 0.829255
0.229661 0.300647 0.846434 0.239511 0.3498 0.831318
0.230324 0.300699 0.848014 0.237596 0.352609 0.83229
0.231327 0.301265 0.849029 0.239019 0.3483 0.834678
0.231826 0.300627 0.84826 0.242597 0.346509 0.834046
0.232324 0.299987 0.847484 0.239169 0.344882 0.833861
0.23581 0.29909 0.846823 0.246219 0.348366 0.831657
0.236765 0.299422 0.847039 0.241531 0.350383 0.831796
0.237253 0.298755 0.846171 0.242576 0.343319 0.832771
0.238185 0.298997 0.846081 0.248042 0.344032 0.832155
0.238695 0.298411 0.845493 0.248878 0.346742 0.830598
0.219317 0.310916 0.837457 0.2276 0.307375 0.838094
0.239796 0.299243 0.847428 0.247461 0.350887 0.831747
0.24046 0.299188 0.848665 0.249354 0.353111 0.832241
0.241019 0.298762 0.848635 0.251903 0.345439 0.834169
0.24195 0.298974 0.848435 0.249384 0.34693 0.833863
0.242685 0.299134 0.850428 0.247536 0.34987 0.835293
0.28486 0.276833 0.875727 0.295856 0.272194 0.875376
0.219616 0.313271 0.839387 0.228041 0.311129 0.839583
0.243375 0.298537 0.84744 0.249558 0.348242 0.832464
0.243934 0.298107 0.847397 0.253361 0.345311 0.832881
0.284967 0.278528 0.877817 0.295868 0.273679 0.877542
0.24505 0.298912 0.84924 0.257135 0.342235 0.835583
0.245745 0.298906 0.850667 0.255733 0.349162 0.835207
0.285287 0.279039 0.877008 0.296331 0.274298 0.876684
0.248896 0.298905 0.851693 0.259512 0.347066 0.836759
0.249462 0.298472 0.851654 0.258012 0.353349 0.834997
0.250761 0.29762 0.849222 0.259788 0.344466 0.83483
0.251407 0.297422 0.849994 0.258796 0.342852 0.836189
0.285851 0.27985 0.871795 0.297467 0.274698 0.871492
0.25234 0.297598 0.849667 0.258145 0.345145 0.835383
0.252967 0.297337 0.850226 0.259208 0.346575 0.835435
0.286099 0.280229 0.870501 0.297356 0.274657 0.870354
0.253681 0.296887 0.847725 0.263633 0.344829 0.832905
0.254247 0.296451 0.847671 0.267959 0.345878 0.832059
0.255256 0.29725 0.851922 0.265709 0.350609 0.835534
0.256221 0.297496 0.851836 0.259169 0.350434 0.836319
0.256799 0.297079 0.85186 0.262944 0.345477 0.837336
0.220095 0.318709 0.834427 0.228832 0.316549 0.834622
0.257578 0.29682 0.850012 0.268398 0.341238 0.836108
0.258245 0.296639 0.85086 0.268297 0.346125 0.835604
0.219915 0.319754 0.834335 0.228179 0.316378 0.834958
0.259806 0.296503 0.850921 0.268227 0.346942 0.835559
0.260341 0.295966 0.850528 0.269798 0.342862 0.836087
0.220265 0.320345 0.834065 0.228335 0.316759 0.834767
0.261466 0.296609 0.851827 0.26869 0.343883 0.837497
0.26205 0.296195 0.851871 0.267883 0.349464 0.836006
0.286957 0.284567 0.870003 0.298141 0.280331 0.869534
0.220537 0.320507 0.832482 0.228626 0.317681 0.832933
0.263153 0.296767 0.85292 0.270829 0.34899 0.837117
0.263952 0.296882 0.854819 0.276044 0.348728 0.838645
0.264572 0.296542 0.855129 0.277458 0.347293 0.839195
0.286892 0.285945 0.87081 0.29819 0.280872 0.870555
0.220928 0.321329 0.83292 0.228993 0.318526 0.833364
0.26556 0.296806 0.855099 0.27217 0.346783 0.84008
0.266054 0.296155 0.854321 0.27035 0.347868 0.839102
0.287284 0.28659 0.870541 0.298589 0.281342 0.87033
0.22176 0.321213 0.8317 0.230239 0.317973 0.832254
0.266963 0.296224 0.853607 0.274048 0.342204 0.839667
0.267691 0.296136 0.854804 0.278768 0.342984 0.840162
0.268324 0.295815 0.855189 0.27642 0.34408 0.840521
0.221992 0.321171 0.829506 0.230421 0.318546 0.82986
0.269023 0.295389 0.852729 0.276459 0.34937 0.836488
0.269605 0.29495 0.852694 0.278981 0.344197 0.837584
0.288027 0.287803 0.869705 0.299448 0.283341 0.869264
0.222261 0.321328 0.827926 0.23094 0.319037 0.828152
0.27062 0.295263 0.852837 0.278713 0.341849 0.838611
0.271375 0.295215 0.854186 0.277654 0.347123 0.838698
0.272097 0.295085 0.85525 0.277638 0.344107 0.840694
0.287596 0.288496 0.867953 0.298897 0.284034 0.867539
0.222324 0.320386 0.823028 0.231421 0.317982 0.823263
0.273038 0.295218 0.854755 0.282792 0.347904 0.838604
0.273851 0.295279 0.856502 0.28634 0.343177 0.84138
0.287572 0.289956 0.869044 0.299278 0.285398 0.868607
0.59663 0.189472 1.203269 0.606491 0.18893 1.199573
0.274611 0.295008 0.854575 0.284527 0.34238 0.839898
0.275254 0.294687 0.854972 0.280065 0.345865 0.839899
0.288175 0.291001 0.870242 0.299586 0.28637 0.869865
0.276146 0.294708 0.854076 0.280649 0.341607 0.840228
0.276486 0.293731 0.85215 0.285978 0.340507 0.837705
0.277697 0.29462 0.85684 0.287325 0.341692 0.842313
0.28858 0.290071 0.865822 0.299955 0.284892 0.865586
0.596732 0.193256 1.204803 0.606923 0.192757 1.200984
0.279066 0.29395 0.855032 0.288694 0.347324 0.838721
0.2885 0.28983 0.862313 0.299977 0.284778 0.862025
0.59735 0.195306 1.207065 0.607359 0.195826 1.203213
0.280237 0.294549 0.856185 0.287431 0.343701 0.841362
0.28103 0.294518 0.857625 0.288335 0.345275 0.842358
0.281746 0.29432 0.858476 0.287664 0.34495 0.843459
0.289705 0.292004 0.867632 0.301396 0.287124 0.867265
0.597793 0.197317 1.208868 0.608592 0.197641 1.204739
0.282799 0.294656 0.858693 0.291136 0.348804 0.842326
0.283755 0.294933 0.861242 0.295793 0.34271 0.84617
0.59847 0.1994 1.211294 0.608914 0.200497 1.20722
0.598645 0.198366 1.208919 0.609232 0.198377 1.204895
0.284397 0.294438 0.858494 0.29464 0.340658 0.844078
0.284958 0.293917 0.858201 0.291271 0.342609 0.843666
0.424563 0.221522 0.934389 0.431549 0.25951 0.925955
0.424282 0.22039 0.930901 0.429952 0.248177 0.924579
0.660289 0.125657 1.13189 0.655003 0.159495 1.132932
0.285954 0.29413 0.857978 0.287969 0.341051 0.844528
0.286264 0.293119 0.855934 0.291978 0.333333 0.843856
0.424603 0.22201 0.932608 0.43273 0.275 0.921266
0.425556 0.221573 0.933274 0.433373 0.268093 0.923138
0.427395 0.222098 0.934987 0.438331 0.274816 0.92285
0.42863 0.221812 0.936571 0.437084 0.273949 0.925302
0.223359 0.327541 0.821612 0.231407 0.325473 0.82181
0.422506 0.227641 0.937025 0.438723 0.21805 0.93395
0.429484 0.221784 0.934977 0.437956 0.280167 0.922625
0.430169 0.22119 0.934728 0.438572 0.272245 0.923653
0.423029 0.228406 0.936869 0.438895 0.21775 0.934081
0.431582 0.22147 0.934981 0.439841 0.277246 0.923131
0.432498 0.221001 0.935484 0.439579 0.276472 0.924075
0.224485 0.327786 0.819502 0.232791 0.324715 0.820015
0.423067 0.228881 0.935061 0.438606 0.218837 0.93226
0.433281 0.220936 0.933664 0.441821 0.281852 0.92087
0.434405 0.220578 0.934838 0.446654 0.271044 0.922673
0.594938 0.205375 1.194538 0.591605 0.186321 1.197961
0.435397 0.220626 0.9337 0.442007 0.27167 0.92315
0.436399 0.220199 0.934465 0.441382 0.273057 0.924146
0.595622 0.204204 1.18862 0.596799 0.178869 1.191015
0.298898 0.294012 0.86589 0.289219 0.244652 0.881117
0.43755 0.220334 0.93384 0.444138 0.275286 0.92265
0.43869 0.219976 0.935032 0.44885 0.26857 0.923808
0.42145 0.229251 0.923836 0.437293 0.220533 0.920704
0.440944 0.220691 0.937902 0.449666 0.269777 0.927018
0.440948 0.21973 0.935467 0.446087 0.270108 0.925524
0.300924 0.291401 0.857688 0.289647 0.242185 0.873156
0.30142 0.290756 0.856962 0.292847 0.236663 0.873316
0.423146 0.231725 0.930193 0.438265 0.2227 0.92735
0.44318 0.220426 0.938231 0.448568 0.271523 0.928067
0.44348 0.21962 0.936739 0.452046 0.267703 0.926091
0.596795 0.21573 1.207581 0.587161 0.215212 1.211293
0.30219 0.290556 0.855246 0.294782 0.242078 0.869886
0.42453 0.233017 0.932947 0.43971 0.223961 0.93009
0.443731 0.219286 0.933265 0.453359 0.267762 0.922185
0.446329 0.219665 0.938962 0.453106 0.270674 0.928403
0.596935 0.217686 1.20859 0.587317 0.216993 1.212315
0.42466 0.233542 0.931467 0.440279 0.224143 0.928539
0.447316 0.21971 0.937777 0.451664 0.269539 0.928169
0.447588 0.218892 0.936211 0.454978 0.266491 0.926015
0.22475 0.333343 0.817396 0.233141 0.330755 0.817757
0.449148 0.219228 0.936803 0.459885 0.267885 0.925321
0.450571 0.218991 0.938781 0.45842 0.272657 0.927442
0.225097 0.333937 0.817152 0.23375 0.331105 0.817579
0.308423 0.289133 0.855148 0.303955 0.233587 0.871194
0.45204 0.219277 0.939065 0.454653 0.27103 0.929726
0.452088 0.218348 0.936826 0.458085 0.267266 0.92687
0.16781 0.361894 0.781755 0.17566 0.398837 0.766665
0.310954 0.290292 0.859988 0.299134 0.239311 0.876066
0.311654 0.289962 0.860419 0.302677 0.235199 0.877012
0.424241 0.235618 0.926876 0.440779 0.227761 0.923402
0.454204 0.218954 0.939069 0.466004 0.268186 0.927125
0.454724 0.218259 0.93827 0.46392 0.275787 0.925857
0.168611 0.36154 0.780162 0.178615 0.395953 0.766119
0.169086 0.361079 0.779863 0.179162 0.400288 0.763857
0.169558 0.360699 0.779762 0.176689 0.401672 0.763007
0.311707 0.288662 0.854675 0.304237 0.240066 0.869341
0.312346 0.288242 0.854772 0.302752 0.239491 0.869837
0.313955 0.289301 0.860281 0.306259 0.242578 0.87443
0.456155 0.218522 0.938412 0.460093 0.271177 0.928512
0.456036 0.217516 0.9357 0.462991 0.26711 0.925322
0.455685 0.216404 0.932306 0.463029 0.263033 0.922305
0.170367 0.359894 0.777074 0.179507 0.401281 0.760144
0.170825 0.360055 0.778286 0.182207 0.400947 0.761598
0.171302 0.359467 0.777678 0.183637 0.398982 0.761578
0.314329 0.288513 0.856391 0.308348 0.23691 0.871594
0.315047 0.288206 0.856908 0.307501 0.237025 0.872253
0.424129 0.236422 0.922715 0.438664 0.227529 0.920029
0.456381 0.216312 0.930278 0.464427 0.269517 0.91895
0.457283 0.21581 0.930638 0.466338 0.263565 0.919878
0.17254 0.360081 0.779264 0.178593 0.402327 0.761971
0.173009 0.359955 0.779786 0.179311 0.397719 0.764349
0.425316 0.237603 0.924783 0.439784 0.22867 0.922123
0.463862 0.218529 0.945992 0.471207 0.265699 0.935877
0.173794 0.360191 0.779626 0.18427 0.397315 0.764454
0.174261 0.360401 0.780968 0.18562 0.398507 0.76541
0.174736 0.360069 0.780988 0.182531 0.399294 0.764966
0.318087 0.287322 0.854942 0.312857 0.234363 0.870352
0.426281 0.238646 0.9261 0.441276 0.229769 0.92327
0.175524 0.36041 0.781081 0.184671 0.402864 0.763714
0.176001 0.359968 0.780836 0.186314 0.401657 0.7638
0.226563 0.337454 0.814486 0.234963 0.335307 0.814683
0.321412 0.289491 0.863541 0.309634 0.238731 0.879585
0.320797 0.28724 0.856934 0.312381 0.230186 0.874033
0.463279 0.215527 0.931453 0.471123 0.261138 0.921416
0.464918 0.215359 0.933921 0.470463 0.260997 0.924696
0.177268 0.359957 0.780903 0.184206 0.398668 0.765065
0.177745 0.359671 0.781041 0.182953 0.402554 0.763512
0.322688 0.287314 0.857851 0.313388 0.237926 0.873042
0.323936 0.28773 0.861057 0.31663 0.240648 0.875218
0.466423 0.215647 0.934238 0.472049 0.263003 0.924687
0.466558 0.214778 0.932347 0.474744 0.258997 0.922434
0.178537 0.359732 0.780449 0.184768 0.399592 0.764131
0.179016 0.359588 0.780934 0.189894 0.400044 0.764381
0.179496 0.359403 0.781319 0.191852 0.397178 0.76587
0.179978 0.359304 0.78192 0.189877 0.396452 0.766744
0.324403 0.28713 0.857822 0.317287 0.236401 0.872963
0.325833 0.287786 0.861918 0.317115 0.236637 0.877461
0.468415 0.215227 0.933664 0.47772 0.258278 0.923521
0.47833 0.218814 0.959718 0.485295 0.265179 0.949887
0.180774 0.359604 0.781909 0.18947 0.401147 0.764915
0.181257 0.35939 0.782229 0.189449 0.400178 0.765561
0.325977 0.286743 0.857045 0.316012 0.240687 0.871483
0.469045 0.214186 0.929211 0.474199 0.259491 0.920161
0.469858 0.213631 0.929274 0.476547 0.256582 0.920082
0.661244 0.156728 1.123497 0.649707 0.156689 1.128957
0.182055 0.359691 0.78222 0.190374 0.39685 0.767005
0.183029 0.35946 0.783344 0.190648 0.401706 0.766089
0.328418 0.286218 0.857435 0.322894 0.235864 0.872143
0.328367 0.284836 0.853996 0.318973 0.2389 0.868261
0.471431 0.213945 0.929763 0.482392 0.255621 0.919238
0.472168 0.213354 0.929605 0.480375 0.260934 0.919139
0.662289 0.157744 1.123892 0.650387 0.15739 1.129558
0.184315 0.3594 0.783297 0.194955 0.402531 0.765642
0.184789 0.358605 0.782194 0.196288 0.397299 0.766348
0.227529 0.339586 0.809914 0.235877 0.33715 0.810216
0.330638 0.28669 0.859844 0.319117 0.236986 0.875585
0.331376 0.286365 0.860331 0.324219 0.230054 0.87695
0.427932 0.243317 0.922763 0.442695 0.234653 0.91997
0.474268 0.2139 0.931552 0.476618 0.260475 0.923311
0.662025 0.159492 1.123788 0.650906 0.159216 1.129076
0.18559 0.358812 0.781953 0.196843 0.395958 0.766709
0.186075 0.358463 0.781944 0.194161 0.39986 0.765021
0.186566 0.358306 0.782409 0.193205 0.397614 0.766367
0.332077 0.286107 0.858346 0.325062 0.234151 0.873792
0.332767 0.285716 0.858588 0.324368 0.235347 0.873864
0.333543 0.285437 0.859247 0.327351 0.235891 0.873825
0.427443 0.243429 0.919293 0.442494 0.234642 0.916435
0.482229 0.216103 0.947542 0.492952 0.258215 0.937008
0.48232 0.214275 0.94329 0.488776 0.257948 0.934091
0.661649 0.161221 1.123449 0.650384 0.160927 1.128805
0.187367 0.358456 0.782029 0.194665 0.397178 0.76619
0.187859 0.358278 0.782445 0.198521 0.397084 0.766539
0.188348 0.358 0.782612 0.198405 0.398343 0.766104
0.334504 0.285524 0.85854 0.325777 0.232305 0.874658
0.33593 0.286079 0.862313 0.324697 0.234837 0.878396
0.426366 0.243157 0.913916 0.442285 0.234689 0.910727
0.487402 0.216094 0.953319 0.492775 0.262579 0.944048
0.662754 0.163198 1.12624 0.651394 0.162616 1.131662
0.189162 0.358406 0.782863 0.196975 0.402593 0.764801
0.189669 0.358493 0.783934 0.199009 0.402964 0.765748
0.190168 0.358385 0.784527 0.201753 0.397541 0.768468
0.190963 0.358276 0.783503 0.202089 0.39613 0.767949
0.191451 0.35789 0.783409 0.198235 0.398791 0.766719
0.33865 0.284695 0.858505 0.331179 0.23385 0.873711
0.339719 0.284767 0.860492 0.328515 0.238684 0.875196
0.19229 0.358646 0.784521 0.19773 0.39761 0.768618
0.192802 0.358684 0.785478 0.200151 0.399514 0.768794
0.19329 0.35825 0.785269 0.20495 0.396066 0.769722
0.341023 0.285275 0.861352 0.332093 0.236662 0.876278
0.34222 0.285493 0.863895 0.334984 0.234547 0.879058
0.194082 0.358081 0.784094 0.205662 0.396712 0.768189
0.194571 0.357672 0.783947 0.204379 0.403498 0.765189
0.195063 0.357315 0.783928 0.20395 0.402048 0.765651
0.34295 0.285283 0.862066 0.336571 0.23755 0.876212
0.343367 0.284533 0.860986 0.336028 0.236354 0.875438
0.343512 0.283455 0.858673 0.337374 0.234423 0.873066
0.487746 0.211957 0.931924 0.481206 0.254905 0.927642
0.195902 0.357892 0.7846 0.205521 0.398185 0.768067
0.196395 0.357516 0.784535 0.205029 0.397659 0.768102
0.196929 0.357737 0.785953 0.204026 0.398566 0.7693
0.345102 0.284298 0.860795 0.335156 0.227084 0.878234
0.495523 0.214847 0.948839 0.483986 0.254194 0.946994
0.197721 0.357566 0.784769 0.204563 0.398861 0.767908
0.348252 0.284499 0.863989 0.342088 0.231066 0.879562
0.42886 0.248342 0.913416 0.444709 0.239076 0.910416
0.49942 0.216104 0.955291 0.484742 0.245936 0.956133
0.199511 0.356797 0.783843 0.211331 0.396127 0.767624
0.200057 0.357061 0.785372 0.210242 0.402159 0.766896
0.2006 0.357263 0.786751 0.208858 0.400233 0.76921
0.349372 0.28352 0.861 0.338068 0.231831 0.877272
0.35055 0.283666 0.863304 0.338127 0.235442 0.87889
0.359569 0.275672 0.859519 0.347703 0.2823 0.860669
0.503943 0.217614 0.96333 0.488126 0.23725 0.966224
0.201403 0.357214 0.785865 0.209281 0.398477 0.768994
0.201919 0.357056 0.786351 0.210746 0.397997 0.769592
0.202426 0.356788 0.786565 0.211187 0.399033 0.769299
0.352593 0.284993 0.867256 0.345317 0.23581 0.881958
0.352253 0.283367 0.862881 0.345874 0.231533 0.878056
0.203289 0.357396 0.787312 0.211812 0.402359 0.768934
0.203784 0.356974 0.787144 0.213908 0.400731 0.769206
0.204266 0.356411 0.786623 0.215656 0.394543 0.770906
0.35324 0.283466 0.862202 0.346521 0.237794 0.875851
0.354128 0.283261 0.863188 0.34539 0.234759 0.87803
0.354383 0.282333 0.861441 0.346728 0.233911 0.875989
0.205131 0.35699 0.787299 0.216316 0.39664 0.77095
0.205633 0.356619 0.787258 0.212781 0.399333 0.769856
0.229837 0.346592 0.80372 0.238439 0.343643 0.804196
0.356148 0.283311 0.864092 0.347937 0.232132 0.879527
0.356683 0.282698 0.863543 0.348821 0.235286 0.877879
0.429555 0.251502 0.910754 0.444349 0.242864 0.907962
0.206462 0.356814 0.786976 0.212139 0.39642 0.770854
0.206964 0.356447 0.786947 0.215361 0.396858 0.770404
0.230228 0.347419 0.804102 0.23904 0.344929 0.804388
0.357453 0.282552 0.86193 0.355736 0.237659 0.874179
0.35759 0.2815 0.859709 0.358218 0.235083 0.871778
0.429949 0.252181 0.910196 0.44515 0.243441 0.907297
0.208869 0.356502 0.788093 0.218291 0.404796 0.768352
0.209373 0.356132 0.78806 0.220552 0.401263 0.769521
0.429865 0.252536 0.908111 0.445435 0.243959 0.90506
0.210185 0.356135 0.787294 0.221672 0.394595 0.771374
0.210677 0.355654 0.786983 0.219638 0.396401 0.770282
0.211184 0.355301 0.786993 0.21682 0.397672 0.769819
0.212056 0.355788 0.78744 0.218183 0.396572 0.770849
0.212586 0.3556 0.787864 0.223468 0.396206 0.771121
0.213093 0.355226 0.787826 0.224706 0.394712 0.771505
0.501738 0.222529 0.949968 0.482241 0.234852 0.955369
0.213857 0.354863 0.786139 0.22458 0.397662 0.768512
0.214469 0.355276 0.788075 0.223701 0.402268 0.768871
0.215009 0.35514 0.788635 0.225449 0.397415 0.77126
0.371086 0.283741 0.876641 0.37001 0.329966 0.864874
0.37186 0.283353 0.876999 0.371419 0.325135 0.866258
0.430072 0.253903 0.90335 0.446924 0.244583 0.900048
0.215925 0.355876 0.789705 0.22479 0.39649 0.773046
0.216422 0.355404 0.789422 0.224052 0.398315 0.771933
0.216928 0.354996 0.789304 0.223373 0.398006 0.77186
0.37323 0.283821 0.877709 0.380125 0.331646 0.863535
0.217714 0.354791 0.788007 0.227938 0.400144 0.769386
0.218215 0.354352 0.787809 0.230964 0.396394 0.77037
0.218774 0.354298 0.788581 0.229929 0.39483 0.771848
0.373885 0.282368 0.872877 0.381276 0.334217 0.857526
0.374577 0.281897 0.87291 0.382429 0.330007 0.858437
0.219775 0.355512 0.790859 0.22892 0.398637 0.773186
0.220305 0.355235 0.791072 0.227767 0.39903 0.773253
0.220737 0.354331 0.789705 0.230013 0.39131 0.774489
0.364666 0.288374 0.869289 0.377927 0.281689 0.86786
0.37563 0.282039 0.872368 0.384454 0.329274 0.857843
0.376437 0.281681 0.872843 0.38442 0.333656 0.857328
0.221484 0.353897 0.787827 0.231851 0.393769 0.771367
0.231389 0.350216 0.795219 0.240303 0.34808 0.795359
0.377564 0.281897 0.872582 0.385968 0.334129 0.85686
0.378194 0.281359 0.872363 0.390418 0.332363 0.855991
0.379056 0.28105 0.873032 0.389225 0.330909 0.857513
0.223402 0.353597 0.788112 0.233745 0.400369 0.768918
0.224007 0.353754 0.789425 0.237153 0.397327 0.771324
0.380217 0.281295 0.872884 0.385287 0.33516 0.857633
0.380817 0.280726 0.872546 0.387096 0.332802 0.857468
0.431897 0.258221 0.902529 0.447431 0.249538 0.899513
0.225505 0.354314 0.790974 0.231987 0.399128 0.772819
0.226075 0.354229 0.791681 0.232735 0.396058 0.774711
0.231655 0.349307 0.789383 0.23945 0.346413 0.7899
0.365498 0.289925 0.866593 0.378606 0.28305 0.865248
0.382092 0.28108 0.872822 0.394446 0.332867 0.85618
0.383143 0.280946 0.874178 0.396192 0.336022 0.856526
0.384142 0.280757 0.875328 0.394356 0.334762 0.85873
0.365799 0.290467 0.865794 0.379382 0.283875 0.864254
0.385391 0.281078 0.875471 0.391556 0.334418 0.860093
0.386125 0.280629 0.875614 0.394926 0.329225 0.860773
0.502103 0.228051 0.939644 0.481842 0.240122 0.945379
0.365731 0.29182 0.866241 0.379308 0.285837 0.864548
0.38662 0.28023 0.872956 0.396649 0.329862 0.857485
0.387286 0.279718 0.87285 0.39554 0.334496 0.856564
0.366469 0.292849 0.867215 0.37986 0.287011 0.865526
0.388786 0.280271 0.873901 0.397444 0.32651 0.859664
0.389337 0.279648 0.873369 0.398744 0.32741 0.858557
0.390392 0.279494 0.87467 0.39605 0.328112 0.860692
0.391618 0.279783 0.874689 0.398809 0.329699 0.859928
0.392674 0.279623 0.875974 0.402499 0.328008 0.860898
0.393881 0.27989 0.875905 0.405101 0.326546 0.860849
0.394624 0.279438 0.87605 0.404 0.331222 0.860222
0.394714 0.278392 0.873864 0.401601 0.325669 0.859905
0.366128 0.294302 0.862522 0.379659 0.287565 0.861055
0.39626 0.278964 0.874994 0.404938 0.326797 0.860359
0.396927 0.278441 0.874864 0.406322 0.327862 0.859646
0.398436 0.278972 0.875835 0.407369 0.332068 0.859779
0.399207 0.278538 0.87606 0.409673 0.330205 0.859954
0.399624 0.277791 0.87505 0.408224 0.323762 0.860945
0.667042 0.216657 1.150799 0.665175 0.187385 1.155426
0.666541 0.211209 1.13799 0.655349 0.209784 1.143445
0.667938 0.210525 1.138625 0.657196 0.209778 1.143794
0.400996 0.278193 0.875516 0.4084 0.33064 0.860084
0.401774 0.277763 0.875759 0.408943 0.328761 0.860787
0.433088 0.263676 0.892647 0.448986 0.254474 0.889633
0.661699 0.213871 1.132811 0.656305 0.192165 1.138118
0.402645 0.277724 0.874484 0.414186 0.331057 0.85762
0.403632 0.277473 0.875436 0.416875 0.329955 0.858313
0.243872 0.350729 0.790727 0.232251 0.310991 0.807339
0.367473 0.296621 0.859946 0.380449 0.290297 0.858492
0.405023 0.277884 0.875937 0.411153 0.326376 0.86187
0.405931 0.277558 0.876603 0.41145 0.330626 0.861586
0.406697 0.277109 0.876782 0.415227 0.323862 0.862494
0.367982 0.297395 0.859991 0.380967 0.291072 0.858533
0.408014 0.27745 0.877005 0.419187 0.328235 0.860885
0.408739 0.276963 0.877038 0.41769 0.331613 0.860631
0.368286 0.297938 0.859221 0.381054 0.291281 0.85791
0.410267 0.277478 0.877949 0.418081 0.32694 0.863154
0.410895 0.276906 0.877651 0.419706 0.324622 0.863019
0.411661 0.276449 0.877809 0.417846 0.323287 0.864211
0.735569 0.139378 1.067602 0.747835 0.102199 1.062728
0.368443 0.298314 0.857871 0.381567 0.292113 0.856339
0.413035 0.276828 0.878185 0.420415 0.32773 0.863178
0.413834 0.276395 0.878442 0.424014 0.324087 0.863413
0.672684 0.223088 1.151504 0.683415 0.225115 1.146174
0.671682 0.22172 1.147027 0.680421 0.227718 1.142097
0.671325 0.220541 1.143931 0.67728 0.23488 1.139206
0.667569 0.218422 1.133683 0.670033 0.242875 1.129281
0.252122 0.347809 0.788599 0.239897 0.307585 0.805486
0.414843 0.27647 0.877604 0.42617 0.324157 0.862192
0.415852 0.276207 0.878543 0.422906 0.327477 0.863564
0.435135 0.268532 0.890778 0.450083 0.258675 0.888236
0.233107 0.357752 0.779684 0.224969 0.360187 0.779355
0.368405 0.29989 0.856442 0.382353 0.2933 0.854825
0.416998 0.276392 0.878141 0.421454 0.32523 0.86454
0.418079 0.276181 0.879299 0.427351 0.32447 0.864376
0.418627 0.275539 0.878727 0.428741 0.323011 0.863769
0.233422 0.358221 0.779178 0.225621 0.360927 0.778713
0.255393 0.348923 0.79179 0.24664 0.308446 0.808431
0.368904 0.300656 0.856454 0.382629 0.294324 0.854817
0.41961 0.275591 0.877793 0.42864 0.329596 0.861508
0.41956 0.274473 0.875311 0.428061 0.325906 0.859858
0.369094 0.301065 0.855239 0.382175 0.295191 0.853629
0.421254 0.275092 0.876652 0.430048 0.322539 0.862068
0.422471 0.274979 0.878211 0.430964 0.328768 0.862168
0.423533 0.27474 0.879269 0.430787 0.325617 0.864365
0.233938 0.3586 0.776803 0.225739 0.36085 0.77656
0.369406 0.301616 0.854511 0.382482 0.29526 0.85304
0.425006 0.275174 0.879868 0.437323 0.329542 0.862459
0.425694 0.274637 0.87973 0.437447 0.328519 0.862646
0.233874 0.360124 0.777999 0.225657 0.361989 0.777911
0.369723 0.302171 0.853805 0.383105 0.294717 0.852575
0.42673 0.274728 0.878943 0.432469 0.328012 0.863892
0.427591 0.274323 0.879344 0.434121 0.329198 0.863675
0.369573 0.302191 0.851277 0.383359 0.295029 0.849856
0.429061 0.274748 0.8799 0.440178 0.32623 0.86356
0.429802 0.274247 0.87992 0.442279 0.329158 0.862316
0.430342 0.273593 0.879318 0.440945 0.326596 0.862817
0.438056 0.272972 0.889285 0.452554 0.262109 0.887131
0.234574 0.361415 0.777848 0.227009 0.363087 0.77779
0.369714 0.302543 0.84989 0.384147 0.296597 0.847943
0.431028 0.273418 0.877448 0.435369 0.323767 0.863607
0.267396 0.34778 0.794703 0.255703 0.302992 0.813392
0.369944 0.30423 0.851466 0.383187 0.298355 0.849817
0.431769 0.273287 0.875762 0.435649 0.313405 0.864575
0.432476 0.272762 0.875676 0.439783 0.307647 0.864675
0.369913 0.304381 0.849409 0.383257 0.297764 0.847951
0.370196 0.304896 0.848584 0.383896 0.298911 0.846844
0.448638 0.279039 0.907266 0.443331 0.248186 0.916596
0.370997 0.307436 0.85044 0.384071 0.301434 0.848876
0.445083 0.272986 0.884356 0.438935 0.230449 0.896836
0.371403 0.308094 0.850085 0.384292 0.30165 0.8487
0.446208 0.272084 0.88158 0.439335 0.222974 0.895915
0.37149 0.308378 0.8485 0.384729 0.302054 0.846986
0.447045 0.272026 0.880165 0.44071 0.224655 0.893919
0.447978 0.271642 0.880693 0.439998 0.224319 0.894981
0.448386 0.27089 0.879705 0.440426 0.224822 0.893658
0.371486 0.308556 0.84657 0.384881 0.302393 0.844964
0.449352 0.270925 0.878668 0.440605 0.218902 0.894374
0.449486 0.269984 0.876904 0.439579 0.221695 0.892085
0.371562 0.308827 0.844956 0.384859 0.302552 0.843408
0.450845 0.270293 0.876997 0.443878 0.223126 0.890905
0.457443 0.273792 0.893558 0.451738 0.220535 0.908471
0.372266 0.309832 0.84575 0.385662 0.303528 0.844182
0.456125 0.269565 0.877982 0.449297 0.217867 0.892921
0.456869 0.269042 0.877946 0.449589 0.218606 0.892716
0.372283 0.311455 0.844577 0.385546 0.306222 0.842724
0.459903 0.27046 0.882633 0.448729 0.220838 0.898643
0.460899 0.270096 0.883276 0.450356 0.215379 0.900263
0.461659 0.269574 0.883265 0.452421 0.217918 0.899017
0.372352 0.311714 0.842946 0.385673 0.306138 0.841181
0.462344 0.26942 0.881426 0.454175 0.219413 0.896427
0.462276 0.268356 0.87915 0.454843 0.219385 0.893608
0.463937 0.268844 0.87999 0.454491 0.217712 0.895737
0.46594 0.268112 0.881268 0.4545 0.221225 0.896689
0.296752 0.34289 0.797622 0.286263 0.295909 0.817028
0.297217 0.342243 0.796945 0.285054 0.301519 0.814278
0.303749 0.336559 0.794378 0.293735 0.340368 0.794797
0.372386 0.313351 0.841842 0.385933 0.30754 0.840099
0.46777 0.268701 0.88253 0.460976 0.21952 0.896813
0.468424 0.268105 0.882217 0.464028 0.217673 0.895879
0.298999 0.342608 0.798119 0.291041 0.298389 0.816052
0.469763 0.268375 0.882144 0.459588 0.218586 0.89784
0.471018 0.26816 0.883433 0.458923 0.219214 0.899625
0.237166 0.37044 0.767761 0.229311 0.372914 0.767387
0.300046 0.343028 0.798382 0.295018 0.303497 0.814077
0.300522 0.342403 0.797768 0.295053 0.301773 0.813934
0.373287 0.31477 0.841491 0.38575 0.307688 0.840428
0.472097 0.268263 0.882653 0.465114 0.221727 0.896383
0.47365 0.26823 0.884715 0.46626 0.21823 0.899399
0.474315 0.267635 0.884421 0.466535 0.22288 0.897983
0.475787 0.267982 0.884664 0.46729 0.219433 0.89943
0.476682 0.267528 0.88497 0.467707 0.217801 0.900173
0.373591 0.315477 0.838889 0.387328 0.310025 0.83697
0.478656 0.268182 0.886507 0.469202 0.222619 0.900939
0.480513 0.268316 0.889303 0.47178 0.221001 0.903852
0.237509 0.371818 0.765448 0.229244 0.373775 0.765335
0.373832 0.315937 0.837929 0.387019 0.310391 0.836182
0.441119 0.285217 0.867393 0.426911 0.293233 0.870149
0.480729 0.267882 0.886245 0.474572 0.223165 0.899216
0.482016 0.267661 0.887546 0.474638 0.217809 0.902179
0.481507 0.266345 0.884208 0.47196 0.219683 0.898905
0.237872 0.372535 0.765534 0.230012 0.375299 0.765033
0.311797 0.343928 0.808045 0.312329 0.382079 0.793795
0.312465 0.343655 0.808399 0.314833 0.380892 0.794159
0.482663 0.26649 0.883602 0.472993 0.218727 0.898641
0.483226 0.265829 0.883037 0.474718 0.216983 0.897855
0.735305 0.18806 1.067668 0.748769 0.190182 1.059665
0.313697 0.344361 0.809428 0.321299 0.382645 0.793776
0.314305 0.343966 0.809457 0.321566 0.388499 0.791572
0.315048 0.343827 0.810178 0.322171 0.389484 0.791923
0.44173 0.286409 0.86588 0.428569 0.295093 0.8681
0.485284 0.266516 0.884727 0.478689 0.21998 0.898283
0.485893 0.26588 0.884274 0.47785 0.217121 0.898897
0.486265 0.265104 0.883222 0.477733 0.217909 0.897646
0.307131 0.3471 0.804039 0.318685 0.342838 0.803523
0.315966 0.34392 0.809546 0.325496 0.387487 0.791565
0.316763 0.343877 0.810532 0.326449 0.386666 0.792825
0.374379 0.318351 0.8369 0.387748 0.311718 0.835461
0.487713 0.265421 0.883343 0.478528 0.21505 0.898805
0.488717 0.265018 0.883886 0.478854 0.217386 0.898951
0.317602 0.342281 0.80643 0.325087 0.386386 0.788654
0.318328 0.342102 0.807044 0.328885 0.383946 0.78951
0.318915 0.341663 0.806955 0.329283 0.38142 0.790243
0.490966 0.265802 0.886 0.483266 0.218782 0.900094
0.492548 0.26573 0.887971 0.485676 0.214139 0.902777
0.319794 0.341686 0.806136 0.330082 0.388391 0.786844
0.320325 0.341146 0.805771 0.329659 0.386491 0.787191
0.374969 0.319398 0.835399 0.388197 0.3129 0.83395
0.493759 0.2659 0.887458 0.484156 0.216894 0.902788
0.494025 0.26506 0.886145 0.482934 0.215295 0.902228
0.495373 0.264844 0.887511 0.48733 0.21456 0.902461
0.321303 0.341348 0.80544 0.329399 0.38193 0.788833
0.322259 0.341573 0.807155 0.331362 0.385769 0.789028
0.322751 0.340957 0.806587 0.330786 0.386605 0.788164
0.496936 0.265215 0.887859 0.490948 0.212213 0.902642
0.497855 0.264748 0.888155 0.489155 0.215666 0.9031
0.32381 0.341298 0.80663 0.334139 0.388236 0.787224
0.324492 0.34102 0.806983 0.337744 0.387818 0.78704
0.325231 0.340839 0.807603 0.337371 0.389826 0.787105
0.49897 0.26486 0.887391 0.486928 0.216373 0.903597
0.500438 0.264702 0.88902 0.491215 0.208294 0.905889
0.501293 0.264193 0.889146 0.491613 0.21404 0.904726
0.325964 0.340601 0.806068 0.332729 0.386414 0.787824
0.326442 0.339962 0.80544 0.334625 0.38544 0.78704
0.327012 0.339484 0.80525 0.336051 0.382187 0.787704
0.502164 0.264167 0.88778 0.495131 0.213835 0.902346
0.50151 0.262815 0.884257 0.496747 0.211997 0.897969
0.307721 0.350641 0.799805 0.318374 0.346823 0.799294
0.328014 0.339718 0.805 0.337699 0.384552 0.786502
0.32843 0.338975 0.804089 0.339226 0.386139 0.784517
0.329332 0.339061 0.805441 0.341667 0.380926 0.787493
0.502826 0.263041 0.883982 0.49426 0.210584 0.899681
0.504007 0.262714 0.884892 0.493248 0.214038 0.900604
0.308065 0.3512 0.799368 0.318741 0.347983 0.798618
0.330609 0.339755 0.80645 0.340438 0.381205 0.789158
0.331635 0.340035 0.808342 0.338933 0.384631 0.790468
0.332202 0.33954 0.808113 0.339163 0.38011 0.7918
0.670301 0.308487 1.189723 0.662293 0.339515 1.186888
0.308325 0.351583 0.798477 0.318878 0.34818 0.797819
0.333538 0.340314 0.809338 0.34455 0.382 0.791698
0.334137 0.339867 0.809245 0.344535 0.384185 0.790796
0.334853 0.339613 0.809684 0.343276 0.382402 0.792246
0.308932 0.352684 0.79944 0.319368 0.348223 0.799212
0.335608 0.339421 0.808257 0.3467 0.383151 0.789847
0.33626 0.33906 0.808401 0.347397 0.381684 0.7904
0.444047 0.292845 0.858398 0.431077 0.30073 0.860762
0.676552 0.310226 1.194376 0.668892 0.33868 1.191928
0.337669 0.339928 0.809885 0.344919 0.380604 0.793433
0.338273 0.339482 0.809801 0.346031 0.384381 0.791715
0.338827 0.338956 0.809496 0.348221 0.381032 0.792083
0.443643 0.292874 0.855644 0.430187 0.3001 0.858365
0.678595 0.310596 1.194299 0.671918 0.338424 1.191537
0.240356 0.379578 0.759167 0.23216 0.381207 0.759207
0.340268 0.339858 0.811073 0.353139 0.382175 0.792743
0.340414 0.338685 0.80899 0.352187 0.38722 0.788669
0.340896 0.338045 0.808369 0.350758 0.38348 0.78963
0.675616 0.302298 1.170931 0.68673 0.303738 1.165461
0.735796 0.210707 1.071021 0.748584 0.213681 1.063265
0.239988 0.379607 0.756976 0.23142 0.381755 0.756811
0.309119 0.35261 0.793654 0.320018 0.349358 0.79286
0.34222 0.33875 0.809411 0.350714 0.380945 0.792129
0.342988 0.338555 0.810022 0.351175 0.384704 0.791396
0.343881 0.33855 0.81116 0.351743 0.384549 0.792684
0.37642 0.325295 0.827366 0.3892 0.319798 0.825713
0.678418 0.305547 1.17745 0.687643 0.31449 1.1713
0.309448 0.353135 0.793145 0.320171 0.348867 0.79278
0.344379 0.337966 0.808642 0.355498 0.384354 0.789226
0.344977 0.337505 0.808518 0.358896 0.384009 0.788415
0.345688 0.337215 0.80887 0.356864 0.385613 0.78875
0.376674 0.325766 0.826487 0.389552 0.320585 0.824699
0.676408 0.306653 1.173627 0.681769 0.32504 1.16728
0.309841 0.353794 0.792975 0.3206 0.348718 0.792918
0.347311 0.338348 0.811098 0.354385 0.383966 0.792922
0.348286 0.338446 0.812532 0.357573 0.381744 0.794684
0.348665 0.337646 0.811477 0.356892 0.379946 0.79426
0.34892 0.336718 0.807991 0.358301 0.381422 0.789596
0.34988 0.336789 0.809349 0.360223 0.382328 0.790438
0.350955 0.337022 0.811163 0.36264 0.378474 0.793411
0.736263 0.219147 1.075174 0.750778 0.221421 1.066528
0.310371 0.356196 0.794383 0.320784 0.352571 0.793827
0.351986 0.337247 0.810874 0.361014 0.379928 0.793295
0.352751 0.337015 0.811401 0.360062 0.381351 0.793666
0.353311 0.336483 0.811091 0.361097 0.374413 0.795558
0.310007 0.356904 0.793343 0.320562 0.352774 0.792969
0.354878 0.337477 0.812943 0.365354 0.379121 0.795376
0.355271 0.336701 0.811958 0.364488 0.380577 0.793921
0.735844 0.22066 1.071216 0.749218 0.222362 1.063276
0.310245 0.357242 0.792362 0.32066 0.352599 0.792217
0.356196 0.336766 0.811221 0.365217 0.378416 0.793997
0.357164 0.336811 0.812525 0.368685 0.37942 0.794344
0.357786 0.336362 0.812455 0.366976 0.379817 0.794575
0.377355 0.328638 0.822382 0.39084 0.323438 0.820431
0.68112 0.312438 1.173923 0.676422 0.298446 1.179134
0.677764 0.309626 1.164344 0.677391 0.288335 1.16908
0.736984 0.222779 1.073542 0.752469 0.224313 1.064411
0.310797 0.358231 0.793014 0.321437 0.353796 0.792741
0.359186 0.337092 0.813569 0.365772 0.379788 0.796591
0.359768 0.336582 0.813333 0.368512 0.378795 0.795995
0.360063 0.335672 0.811974 0.369589 0.377345 0.794645
0.735175 0.224155 1.070741 0.750532 0.227923 1.061356
0.311229 0.358972 0.793041 0.322596 0.355718 0.792154
0.360654 0.33527 0.809928 0.371346 0.379525 0.791341
0.360912 0.334319 0.808448 0.371888 0.379947 0.789314
0.36218 0.334756 0.810863 0.372942 0.377085 0.792978
0.675153 0.30735 1.150176 0.676432 0.281383 1.155151
0.738268 0.228872 1.080416 0.746718 0.257611 1.071265
0.734664 0.225856 1.070197 0.747715 0.238247 1.060853
0.241743 0.384464 0.752738 0.23338 0.385955 0.752864
0.363244 0.335008 0.810644 0.371345 0.376806 0.793607
0.738683 0.228742 1.077536 0.747853 0.253084 1.068606
0.377961 0.331255 0.819824 0.391639 0.325188 0.81812
0.368943 0.335108 0.813858 0.378533 0.37797 0.79605
0.369819 0.334977 0.814696 0.379461 0.379352 0.796354
0.370555 0.334656 0.815004 0.378199 0.378434 0.797431
0.371091 0.334198 0.812779 0.380431 0.3804 0.793853
0.372157 0.334307 0.814297 0.385373 0.378481 0.795052
0.372886 0.333974 0.814571 0.384643 0.378294 0.795688
0.374261 0.334604 0.815414 0.379777 0.378831 0.798241
0.374654 0.333834 0.814457 0.381844 0.371687 0.799096
0.374903 0.333022 0.811223 0.381283 0.368082 0.797045
0.312034 0.362612 0.785712 0.323434 0.358603 0.785123
0.446954 0.305581 0.839534 0.433117 0.312301 0.842543
0.388219 0.332725 0.816732 0.378396 0.29183 0.833963
0.389611 0.333146 0.819182 0.38167 0.289736 0.836722
0.449437 0.307977 0.844786 0.436268 0.315685 0.847254
0.38005 0.335341 0.809726 0.367763 0.341391 0.811068
0.390537 0.333182 0.818331 0.383829 0.289893 0.835496
0.390771 0.332229 0.81686 0.382878 0.289997 0.833988
0.391215 0.331524 0.816096 0.383459 0.290678 0.83268
0.391766 0.331127 0.814008 0.381628 0.286345 0.832716
0.39261 0.330891 0.814585 0.38188 0.28617 0.833433
0.393236 0.330401 0.814434 0.383232 0.289373 0.831758
0.393547 0.329736 0.811575 0.385978 0.287085 0.828761
0.394126 0.329195 0.811276 0.387214 0.284122 0.829086
0.313147 0.365424 0.779273 0.323329 0.361517 0.778876
0.395168 0.329372 0.810832 0.384702 0.2877 0.828577
0.396085 0.329214 0.811632 0.384738 0.284655 0.830638
0.397274 0.32936 0.813309 0.388912 0.280821 0.832762
0.244784 0.392229 0.745384 0.237422 0.39412 0.745237
0.399488 0.330847 0.816628 0.391511 0.28865 0.833789
0.400497 0.330776 0.817691 0.390639 0.289204 0.835202
0.400497 0.329576 0.815508 0.393742 0.286913 0.832413
0.450244 0.311393 0.841247 0.43675 0.318003 0.844165
0.401342 0.329524 0.814397 0.392321 0.287934 0.831671
0.401545 0.328558 0.812882 0.390245 0.285454 0.831381
0.380913 0.33854 0.804724 0.36909 0.34288 0.806553
0.4046 0.328558 0.814468 0.396199 0.286208 0.831792
0.405864 0.327782 0.81254 0.398072 0.286393 0.829352
0.406968 0.327794 0.813852 0.398035 0.283489 0.832019
0.408696 0.328467 0.817091 0.397642 0.289326 0.834144
0.408616 0.32743 0.813115 0.400413 0.287952 0.829397
0.409322 0.32701 0.813182 0.401259 0.285665 0.830044
0.41076 0.32736 0.815488 0.403124 0.289608 0.830958
0.412451 0.328198 0.816952 0.404706 0.288335 0.833215
0.412703 0.327293 0.81562 0.404268 0.285825 0.832644
0.31474 0.370854 0.778242 0.325295 0.36725 0.777647
0.413465 0.327156 0.814249 0.405409 0.288404 0.830247
0.414591 0.327163 0.815566 0.404748 0.287958 0.832295
0.415819 0.327271 0.817182 0.407375 0.287376 0.833667
0.245961 0.393691 0.737889 0.238746 0.395847 0.737603
0.416228 0.32677 0.814747 0.411554 0.285926 0.830332
0.417322 0.326734 0.815946 0.409386 0.28546 0.832751
0.418017 0.326288 0.815951 0.407574 0.287656 0.832676
0.418916 0.326292 0.814986 0.410417 0.285373 0.831874
0.420321 0.326561 0.817082 0.411101 0.284685 0.834523
0.420854 0.325947 0.816601 0.411394 0.28756 0.832917
0.314865 0.370617 0.772583 0.325647 0.367527 0.771713
0.381993 0.342135 0.798852 0.370727 0.347809 0.800032
0.422105 0.326302 0.816659 0.415048 0.286598 0.832638
0.422897 0.325946 0.816933 0.416235 0.284151 0.833472
0.423627 0.325527 0.817025 0.415209 0.287329 0.832922
0.246369 0.398091 0.741325 0.238528 0.399274 0.741579
0.42514 0.326134 0.817824 0.415104 0.28493 0.835338
0.425767 0.325609 0.817608 0.417207 0.282245 0.83533
0.426508 0.325197 0.817723 0.417527 0.286509 0.833983
0.452287 0.317454 0.833431 0.439812 0.32469 0.83578
0.428529 0.326291 0.819955 0.420562 0.286009 0.836437
0.430265 0.325962 0.819331 0.420273 0.283884 0.837151
0.431618 0.326129 0.821161 0.420345 0.283652 0.839551
0.432233 0.325582 0.820893 0.423382 0.281636 0.838908
0.383133 0.34539 0.798262 0.371335 0.350673 0.79974
0.43229 0.324776 0.81752 0.424923 0.283959 0.833983
0.433187 0.324501 0.818049 0.424716 0.283463 0.834962
0.315451 0.375864 0.773663 0.326121 0.371749 0.77328
0.383859 0.346455 0.79905 0.371815 0.351699 0.800617
0.436321 0.325485 0.821308 0.426422 0.281277 0.839823
0.437198 0.32518 0.821761 0.425813 0.279903 0.841154
0.438265 0.325051 0.822735 0.428065 0.282485 0.840769
0.315416 0.375613 0.771418 0.325623 0.371599 0.771083
0.440577 0.32636 0.82561 0.43372 0.284148 0.842348
0.440752 0.325394 0.824112 0.433623 0.280582 0.841806
0.440758 0.324275 0.822155 0.43299 0.28363 0.838659
0.444554 0.326931 0.829039 0.433536 0.282473 0.848052
0.4428 0.324199 0.822292 0.431629 0.277323 0.842156
0.442977 0.323244 0.820819 0.432128 0.282396 0.838523
0.445561 0.324769 0.824352 0.438025 0.283856 0.84089
0.444985 0.323132 0.820852 0.440175 0.27813 0.83773
0.384251 0.348749 0.795926 0.372336 0.35381 0.797522
0.44555 0.322827 0.818937 0.443542 0.281021 0.833726
0.446653 0.32271 0.819961 0.445023 0.282247 0.834133
0.384179 0.348785 0.794028 0.372297 0.354897 0.795212
0.385421 0.350521 0.796537 0.373415 0.356538 0.797797
0.461873 0.322555 0.830452 0.465004 0.364975 0.815227
0.46267 0.322454 0.829114 0.470216 0.367066 0.81141
0.462919 0.321568 0.827859 0.474214 0.363509 0.809587
0.464645 0.32225 0.82889 0.473817 0.361545 0.81229
0.465388 0.321776 0.828888 0.472674 0.365266 0.811666
0.466082 0.321262 0.82876 0.474242 0.361537 0.81227
0.466982 0.321251 0.827692 0.475096 0.360686 0.811463
0.467977 0.320984 0.828318 0.476188 0.364329 0.810782
0.468709 0.320498 0.828281 0.479523 0.361373 0.810534
0.260588 0.402814 0.741254 0.270768 0.440016 0.721273
0.261162 0.402673 0.741636 0.26961 0.441026 0.721314
0.385771 0.352879 0.791657 0.374427 0.358522 0.792859
0.470364 0.321105 0.82909 0.48001 0.360512 0.812256
0.471139 0.320652 0.829155 0.478793 0.36284 0.812227
0.471758 0.320071 0.828831 0.479091 0.359899 0.812825
0.262065 0.403073 0.741703 0.274763 0.442235 0.720384
0.262399 0.40201 0.740247 0.276495 0.441238 0.71872
0.262985 0.401908 0.740709 0.276426 0.443067 0.71831
0.263503 0.401542 0.740643 0.27479 0.442139 0.718825
0.385648 0.352843 0.789611 0.37378 0.357849 0.791223
0.472867 0.320228 0.828271 0.481809 0.359856 0.811646
0.474328 0.320324 0.830017 0.482753 0.3635 0.812458
0.475686 0.320332 0.8315 0.484405 0.361842 0.814385
0.26445 0.402096 0.741018 0.273149 0.439714 0.721002
0.264871 0.401372 0.740236 0.274978 0.438105 0.720484
0.26543 0.401153 0.740467 0.275629 0.439598 0.719858
0.47656 0.320297 0.830347 0.487434 0.36065 0.812691
0.476993 0.319563 0.829562 0.48573 0.361952 0.812135
0.477669 0.319024 0.829372 0.483802 0.359882 0.813535
0.266903 0.401348 0.740793 0.279108 0.440483 0.719534
0.26751 0.401291 0.741348 0.281216 0.439741 0.720232
0.268045 0.400972 0.741381 0.280154 0.441505 0.71946
0.451183 0.32864 0.815224 0.467148 0.32026 0.812006
0.479169 0.319485 0.829738 0.48871 0.359933 0.812594
0.479982 0.31905 0.829873 0.489741 0.360998 0.812167
0.480176 0.318131 0.828517 0.488455 0.359091 0.811764
0.26924 0.400164 0.739697 0.280227 0.437206 0.719649
0.269899 0.400276 0.740594 0.280418 0.435998 0.721281
0.270491 0.40015 0.741014 0.278541 0.436865 0.721574
0.45216 0.329817 0.816306 0.467646 0.321608 0.81321
0.481889 0.318753 0.829383 0.491972 0.360274 0.81166
0.483005 0.318551 0.830235 0.491841 0.36037 0.812955
0.271097 0.399486 0.738946 0.279477 0.43651 0.719272
0.272027 0.400502 0.74166 0.284005 0.43771 0.721378
0.272708 0.40066 0.742655 0.28533 0.437041 0.722697
0.273229 0.400275 0.742559 0.283694 0.437119 0.722701
0.452021 0.329986 0.814478 0.467104 0.322152 0.811404
0.484905 0.319311 0.831519 0.490868 0.359997 0.815779
0.486043 0.319118 0.832409 0.49473 0.361244 0.815074
0.48676 0.318598 0.832294 0.496804 0.359859 0.814684
0.27396 0.400036 0.741338 0.283954 0.437749 0.721083
0.27454 0.399846 0.741636 0.285703 0.435878 0.722051
0.275119 0.399649 0.741919 0.284944 0.434091 0.723335
0.452629 0.330831 0.814596 0.467818 0.3235 0.811302
0.487501 0.318463 0.830818 0.496179 0.360202 0.813595
0.488489 0.31815 0.831341 0.497213 0.361708 0.813528
0.489687 0.317994 0.832352 0.498549 0.359068 0.815303
0.275972 0.399811 0.741504 0.284646 0.434664 0.722859
0.276615 0.399813 0.74219 0.285335 0.436718 0.72253
0.277122 0.399375 0.741987 0.287906 0.434963 0.722673
0.453246 0.331683 0.814732 0.468832 0.323805 0.811472
0.491023 0.318309 0.832265 0.498896 0.358863 0.815772
0.491921 0.317921 0.832563 0.499796 0.361577 0.815086
0.492975 0.317648 0.833222 0.501904 0.35913 0.816011
0.279238 0.399434 0.742732 0.29072 0.438935 0.721353
0.279931 0.39957 0.743694 0.292571 0.436332 0.723497
0.3194 0.385834 0.762327 0.329984 0.381606 0.762005
0.493946 0.317686 0.832276 0.504003 0.359952 0.814288
0.494573 0.317093 0.83194 0.503017 0.362023 0.813812
0.495856 0.316986 0.833117 0.503954 0.358331 0.816312
0.280723 0.399522 0.742852 0.290514 0.434249 0.724082
0.281208 0.399008 0.7425 0.290989 0.439126 0.721073
0.281731 0.398611 0.742386 0.291417 0.436976 0.721853
0.282291 0.398326 0.742498 0.29287 0.433936 0.723193
0.497567 0.317568 0.83386 0.506564 0.359757 0.816356
0.498317 0.317061 0.8338 0.506132 0.362485 0.815793
0.498576 0.316195 0.832621 0.50726 0.357483 0.81558
0.283147 0.398473 0.742049 0.295545 0.438177 0.720385
0.283815 0.398505 0.742805 0.296782 0.442239 0.719069
0.50056 0.31697 0.833966 0.512361 0.359709 0.81505
0.501503 0.316601 0.834338 0.511235 0.361961 0.815513
0.502396 0.316193 0.834593 0.510703 0.358322 0.817452
0.286136 0.399068 0.744582 0.29541 0.437897 0.723866
0.286957 0.399521 0.746198 0.29646 0.440175 0.724558
0.287608 0.399472 0.746798 0.298105 0.436058 0.727005
0.50328 0.316165 0.833431 0.51233 0.358493 0.815859
0.5046 0.316062 0.834642 0.512572 0.361972 0.816426
0.250576 0.41335 0.729683 0.258012 0.411868 0.729605
0.288712 0.398388 0.74454 0.300026 0.4391 0.722548
0.289093 0.397565 0.743567 0.301664 0.438204 0.721406
0.289517 0.396868 0.742847 0.301926 0.433463 0.722712
0.505544 0.316077 0.833612 0.513943 0.36147 0.815333
0.506205 0.315501 0.833341 0.517598 0.359882 0.814063
0.50734 0.315258 0.834121 0.51649 0.360486 0.815599
0.250903 0.413914 0.729439 0.259243 0.412594 0.729168
0.290579 0.397577 0.743537 0.300388 0.432751 0.724518
0.2912 0.39743 0.743939 0.30018 0.435542 0.723633
0.5085 0.315427 0.83357 0.515326 0.359713 0.81636
0.508543 0.314413 0.831929 0.517207 0.358345 0.814022
0.509744 0.314214 0.832848 0.519073 0.357367 0.814907
0.294076 0.39751 0.745456 0.303769 0.436703 0.724494
0.294613 0.397119 0.745365 0.306297 0.433102 0.725628
0.453479 0.335043 0.80705 0.469736 0.326885 0.803626
0.51214 0.315243 0.835004 0.522153 0.360692 0.815982
0.512008 0.314109 0.832987 0.522805 0.359857 0.813532
0.512084 0.313123 0.83143 0.522117 0.357056 0.812919
0.295514 0.397351 0.745081 0.307363 0.431916 0.72597
0.296094 0.39707 0.745213 0.306122 0.434715 0.724937
0.296739 0.396961 0.745699 0.306559 0.434451 0.725549
0.297411 0.396917 0.746321 0.307916 0.430387 0.728019
0.321582 0.390894 0.761322 0.332543 0.38767 0.760445
0.454185 0.335979 0.807417 0.470268 0.326996 0.804355
0.513959 0.313784 0.832431 0.521897 0.357899 0.814786
0.515362 0.313712 0.83376 0.524091 0.358806 0.815461
0.516516 0.313465 0.834544 0.525095 0.356605 0.816953
0.298334 0.397196 0.746131 0.308761 0.432525 0.7269
0.454228 0.337424 0.807938 0.469226 0.328269 0.805382
0.516781 0.313017 0.832039 0.525539 0.359151 0.81338
0.517922 0.312759 0.832789 0.524918 0.358948 0.814955
0.300585 0.397316 0.74704 0.31335 0.433209 0.727073
0.301294 0.397345 0.747814 0.314159 0.435815 0.726579
0.301714 0.396634 0.747074 0.311588 0.436145 0.725914
0.302391 0.396577 0.747675 0.31264 0.431987 0.728453
0.320939 0.39077 0.757141 0.331309 0.386958 0.756676
0.520388 0.313806 0.835012 0.522445 0.357205 0.820331
0.521081 0.313239 0.834789 0.523427 0.357215 0.819818
0.303148 0.39642 0.746586 0.313537 0.431538 0.727443
0.30364 0.395895 0.746227 0.312997 0.435251 0.725232
0.304138 0.395385 0.745898 0.312667 0.433738 0.725566
0.520503 0.31223 0.830505 0.521731 0.355908 0.816128
0.522339 0.312432 0.832714 0.522738 0.355068 0.819084
0.30507 0.395663 0.745703 0.317434 0.433382 0.724887
0.305628 0.3953 0.745677 0.319406 0.434493 0.723874
0.306147 0.394841 0.745453 0.318156 0.436578 0.722775
0.38979 0.364256 0.780558 0.377348 0.368784 0.782557
0.45519 0.339167 0.80608 0.471201 0.331691 0.802508
0.524892 0.313522 0.835075 0.521935 0.353358 0.823896
0.308827 0.395897 0.748307 0.319057 0.434913 0.727292
0.309611 0.396061 0.749372 0.319069 0.436032 0.728063
0.309997 0.395272 0.748473 0.319528 0.43038 0.729518
0.310798 0.395217 0.747588 0.323009 0.434519 0.726013
0.311399 0.39494 0.747744 0.32359 0.437627 0.724544
0.311859 0.394329 0.747214 0.324409 0.434999 0.724928
0.312737 0.394458 0.746707 0.324252 0.430188 0.726988
0.313116 0.393663 0.745794 0.323547 0.431245 0.725416
0.313979 0.393983 0.747187 0.323193 0.434064 0.72587
0.315514 0.393946 0.747068 0.326565 0.430496 0.727042
0.316335 0.394152 0.748231 0.327864 0.433646 0.726691
0.317205 0.394461 0.749607 0.328644 0.434147 0.728005
