# .PCD v0.7 - Point Cloud Data file format
VERSION 0.7
FIELDS x y z normal_x normal_y normal_z
SIZE 4 4 4 4 4 4
TYPE F F F F F F
COUNT 1 1 1 1 1 1
WIDTH 872
HEIGHT 1
VIEWPOINT 0 0 0 1 0 0 0
POINTS 872
DATA ascii
0.137644 0.509513 1.130844 0.12465 0.538476 1.135505
0.137041 0.50483 1.12143 0.147986 0.482209 1.117311
0.475438 0.283587 1.422142 0.470007 0.303591 1.427718
0.13806 0.510345 1.12927 0.126048 0.536847 1.133582
0.137542 0.50567 1.12007 0.148625 0.482192 1.115929
0.475594 0.284948 1.419964 0.47089 0.305269 1.425136
0.139724 0.510132 1.128406 0.124003 0.542085 1.134202
0.138324 0.506533 1.119325 0.149331 0.484302 1.115175
0.476832 0.284958 1.417634 0.473278 0.306414 1.422265
0.139849 0.510935 1.126208 0.123642 0.542467 1.132235
0.139784 0.506307 1.11806 0.149175 0.486984 1.114515
0.477058 0.2863 1.415588 0.472085 0.307602 1.421036
0.140331 0.51177 1.124797 0.124212 0.545807 1.130662
0.140295 0.507144 1.116737 0.149624 0.484838 1.11335
0.479401 0.286092 1.415125 0.473411 0.30513 1.420931
0.141022 0.512624 1.123846 0.124995 0.544707 1.129749
0.140623 0.507963 1.115022 0.150907 0.485205 1.11122
0.479722 0.287412 1.413252 0.473702 0.30799 1.419245
0.14146 0.513452 1.122348 0.12609 0.543062 1.128054
0.141184 0.508802 1.113816 0.150979 0.4852 1.110286
0.479959 0.288744 1.411243 0.475882 0.310636 1.41621
0.142591 0.513186 1.120365 0.129608 0.544854 1.124901
0.142465 0.508559 1.112198 0.150928 0.488808 1.109102
0.481754 0.28864 1.409883 0.475822 0.311504 1.416091
0.14332 0.51404 1.119508 0.130362 0.545195 1.124045
0.142551 0.509351 1.109985 0.153042 0.488904 1.105979
0.482041 0.289958 1.407969 0.474057 0.313729 1.415508
0.14396 0.514885 1.118464 0.130744 0.54525 1.123148
0.143036 0.510178 1.108635 0.153563 0.488159 1.104687
0.482121 0.291312 1.40572 0.474888 0.31562 1.412856
0.144246 0.515691 1.116665 0.131645 0.545382 1.121084
0.14372 0.511023 1.107713 0.154228 0.488836 1.103789
0.483425 0.291297 1.403571 0.478174 0.313957 1.409335
0.144596 0.516501 1.115007 0.132105 0.542082 1.119569
0.144238 0.51185 1.106443 0.154647 0.490667 1.102526
0.483806 0.292589 1.401833 0.479493 0.316396 1.407146
0.145948 0.516257 1.113541 0.131164 0.545993 1.118997
0.145562 0.511611 1.104955 0.153169 0.492422 1.102247
0.485208 0.292553 1.399864 0.482136 0.31516 1.404297
0.146705 0.517109 1.112765 0.132291 0.548258 1.117967
0.14616 0.512444 1.103865 0.153921 0.491003 1.101197
0.485191 0.293914 1.397485 0.479792 0.315585 1.403219
0.147277 0.51794 1.1116 0.133979 0.548118 1.116317
0.146749 0.513275 1.102759 0.155787 0.48933 1.099613
0.485657 0.295182 1.395905 0.479071 0.318236 1.402508
0.14787 0.518772 1.110482 0.135639 0.54811 1.114729
0.147434 0.514115 1.10186 0.157615 0.491078 1.098137
0.486047 0.296461 1.394205 0.480157 0.320676 1.400499
0.149125 0.518516 1.108837 0.136078 0.548606 1.113456
0.148605 0.513858 1.100078 0.158026 0.493 1.096592
0.486878 0.296523 1.391337 0.479562 0.324648 1.398956
0.149749 0.51935 1.107797 0.136499 0.548591 1.112548
0.149046 0.514671 1.098676 0.157167 0.490721 1.095969
0.486895 0.297863 1.389045 0.479324 0.3239 1.396576
0.15033 0.520177 1.106669 0.138483 0.548962 1.110767
0.149574 0.515491 1.09746 0.15794 0.491472 1.094648
0.4874 0.299113 1.38755 0.480501 0.323394 1.394463
0.150777 0.520988 1.105262 0.140308 0.547362 1.108824
0.150872 0.515248 1.095971 0.158145 0.495974 1.093433
0.488814 0.299065 1.385661 0.483849 0.325315 1.391613
0.152045 0.520733 1.103675 0.141153 0.549026 1.107358
0.151799 0.516108 1.095595 0.159457 0.494133 1.093013
0.489667 0.30025 1.38474 0.484459 0.325055 1.390669
0.152549 0.521549 1.102402 0.141466 0.550756 1.106116
0.152331 0.516926 1.094403 0.159715 0.493193 1.092053
0.491058 0.300204 1.382827 0.483781 0.325217 1.390077
0.152948 0.522351 1.100913 0.14247 0.550228 1.104398
0.153438 0.516662 1.092535 0.159705 0.497314 1.090487
0.491244 0.301501 1.38084 0.484296 0.328069 1.388042
0.154442 0.522121 1.09982 0.143835 0.55249 1.103253
0.153998 0.517481 1.091413 0.16128 0.496519 1.088964
0.491558 0.302774 1.379064 0.484965 0.328374 1.385927
0.154814 0.522918 1.098288 0.144358 0.554627 1.101559
0.492257 0.302844 1.376067 0.485943 0.330356 1.382979
0.155667 0.52377 1.097756 0.145161 0.552262 1.10122
0.49228 0.30416 1.373839 0.486551 0.332507 1.380461
0.157222 0.523548 1.096804 0.14879 0.551738 1.099301
0.492575 0.305427 1.372053 0.486294 0.33075 1.378683
0.158241 0.524418 1.096617 0.149867 0.553568 1.099017
0.15627 0.519607 1.085181 0.161588 0.496404 1.083825
0.495008 0.305196 1.371853 0.489872 0.330733 1.377802
0.159143 0.525274 1.096191 0.151568 0.552369 1.098308
0.157926 0.519402 1.084488 0.163222 0.498367 1.083014
0.495134 0.306488 1.369807 0.49135 0.333028 1.374999
0.160505 0.525029 1.094856 0.151029 0.554422 1.097785
0.158942 0.520265 1.08432 0.164624 0.498883 1.082685
0.164424 0.510672 1.079117 0.136809 0.50167 1.093315
0.496184 0.306489 1.367419 0.490226 0.329828 1.373654
0.160989 0.525834 1.09358 0.15154 0.554712 1.096514
0.160403 0.520039 1.083235 0.163063 0.499824 1.083017
0.164246 0.512538 1.078357 0.132099 0.512028 1.09443
0.165895 0.502724 1.065721 0.152972 0.476807 1.073292
0.166598 0.501686 1.065364 0.154914 0.474201 1.072354
0.496551 0.307735 1.36577 0.48896 0.33179 1.3731
0.161692 0.526664 1.092756 0.153069 0.553056 1.095419
0.160729 0.520824 1.081674 0.162518 0.499607 1.081955
0.164388 0.514433 1.078238 0.127542 0.52354 1.09619
0.167765 0.501458 1.063788 0.157756 0.471265 1.070046
0.168107 0.500395 1.062724 0.158196 0.469445 1.068941
0.497159 0.308939 1.364506 0.490495 0.335255 1.371475
0.163034 0.526416 1.091398 0.154473 0.554285 1.093962
0.16168 0.520543 1.079575 0.160172 0.501562 1.081364
0.164533 0.516329 1.078125 0.127329 0.53015 1.096005
0.169651 0.500197 1.061901 0.161409 0.466706 1.067373
0.497337 0.310211 1.362567 0.490824 0.335354 1.369306
0.16351 0.527217 1.090121 0.154832 0.553088 1.09285
0.164846 0.517115 1.076561 0.127786 0.532124 1.094333
0.171839 0.500046 1.062336 0.16618 0.462455 1.066645
0.171735 0.498954 1.060415 0.166896 0.459086 1.064356
0.498159 0.310243 1.359853 0.490637 0.338521 1.367574
0.165 0.526988 1.089075 0.154848 0.556061 1.09236
0.16413 0.520043 1.076512 0.13871 0.524634 1.088971
0.165189 0.517902 1.075066 0.130461 0.534646 1.091601
0.173759 0.498791 1.060535 0.171102 0.457073 1.06342
0.498451 0.311491 1.358107 0.49254 0.342933 1.365116
0.16556 0.527798 1.087978 0.154919 0.55794 1.091429
0.165343 0.519794 1.074971 0.134571 0.537702 1.089436
0.175394 0.4986 1.059899 0.17403 0.455044 1.06218
0.499678 0.311454 1.356051 0.496238 0.338736 1.361069
0.166817 0.527541 1.086477 0.155758 0.558735 1.090095
0.165987 0.52061 1.074079 0.139189 0.539537 1.086507
0.177186 0.498421 1.05957 0.176218 0.454236 1.061664
0.500356 0.312635 1.354921 0.494466 0.33762 1.361253
0.16717 0.528323 1.084974 0.155733 0.561458 1.088648
0.166672 0.52143 1.073271 0.14328 0.541564 1.083928
0.178263 0.498193 1.057867 0.179027 0.454462 1.059037
0.50056 0.31389 1.353054 0.495247 0.33933 1.35905
0.167631 0.529118 1.083692 0.15591 0.561603 1.087535
0.179372 0.499046 1.057922 0.180242 0.455239 1.059073
0.502507 0.313735 1.352142 0.497825 0.340464 1.357877
0.169066 0.528882 1.082567 0.157088 0.56342 1.086436
0.169766 0.523262 1.075073 0.153422 0.542408 1.082237
0.180814 0.498843 1.056929 0.18377 0.453011 1.057053
0.502189 0.315068 1.349474 0.495983 0.34083 1.356076
0.169554 0.529678 1.081349 0.159613 0.563353 1.084234
0.17079 0.524121 1.074935 0.158235 0.544118 1.080132
0.182437 0.498652 1.056286 0.187745 0.449877 1.05527
0.503613 0.314994 1.347763 0.497531 0.340195 1.354243
0.170759 0.529415 1.07978 0.160115 0.565247 1.082907
0.183512 0.499502 1.056278 0.18817 0.450207 1.055654
0.50327 0.316325 1.345073 0.497733 0.345334 1.351574
0.172137 0.529174 1.078564 0.162662 0.563078 1.081243
0.185071 0.499308 1.055518 0.191528 0.449015 1.053966
0.504227 0.317451 1.344401 0.497486 0.343562 1.351373
0.17275 0.529984 1.077609 0.163672 0.56625 1.079921
0.186759 0.499122 1.055004 0.194511 0.448993 1.052741
0.504884 0.318621 1.343267 0.49864 0.343258 1.349757
0.174178 0.529749 1.076501 0.166882 0.56442 1.078028
0.187664 0.49996 1.054675 0.195989 0.450361 1.052118
0.506606 0.318497 1.342041 0.501925 0.343361 1.347555
0.174964 0.530579 1.075892 0.168043 0.567381 1.077073
0.189623 0.499793 1.054674 0.197005 0.451286 1.052557
0.506618 0.319763 1.339922 0.501555 0.343287 1.345538
0.176652 0.530377 1.075305 0.170592 0.567161 1.076064
0.190688 0.500642 1.054645 0.198323 0.45216 1.052422
0.506945 0.320978 1.338294 0.5013 0.342891 1.344119
0.178112 0.530148 1.074273 0.173244 0.566612 1.074457
0.192515 0.500466 1.054394 0.20092 0.452251 1.051728
0.507419 0.321039 1.335174 0.502472 0.346121 1.340868
0.178797 0.530964 1.073477 0.173775 0.567427 1.073716
0.193547 0.501313 1.054305 0.201887 0.454098 1.051664
0.50748 0.322288 1.333151 0.502208 0.346924 1.339
0.180495 0.530764 1.072915 0.175973 0.567144 1.072916
0.195541 0.501149 1.054366 0.204298 0.452469 1.051535
0.508633 0.322245 1.331093 0.502405 0.346559 1.337551
0.181729 0.530507 1.071462 0.178127 0.567957 1.070931
0.197437 0.500977 1.054242 0.204076 0.453646 1.052479
0.508976 0.323447 1.329512 0.502439 0.349696 1.336349
0.182606 0.531346 1.071044 0.180922 0.570448 1.069386
0.198586 0.501833 1.054368 0.205039 0.452928 1.052798
0.509677 0.324594 1.32848 0.50234 0.35105 1.33585
0.184319 0.531149 1.070523 0.182063 0.568848 1.069262
0.200803 0.501685 1.054836 0.207544 0.453598 1.053059
0.51058 0.324584 1.326064 0.504176 0.348033 1.332546
0.186153 0.530967 1.070235 0.184687 0.567777 1.068628
0.201993 0.502544 1.055033 0.20839 0.456244 1.053402
0.250286 0.468137 1.087002 0.224449 0.471877 1.101708
0.51139 0.325712 1.325205 0.504893 0.351086 1.331921
0.18759 0.530736 1.06919 0.187221 0.56771 1.067006
0.204214 0.502396 1.055502 0.207685 0.456637 1.055426
0.511963 0.326873 1.32399 0.50582 0.353312 1.33056
0.188353 0.531559 1.068561 0.187734 0.568668 1.066471
0.20638 0.502244 1.055866 0.20797 0.456971 1.056787
0.51318 0.326813 1.322071 0.507529 0.35303 1.32831
0.190125 0.53137 1.068161 0.1908 0.566211 1.065544
0.208551 0.502092 1.056235 0.208598 0.456619 1.058002
0.246756 0.474882 1.081312 0.225028 0.472573 1.093736
0.513134 0.328058 1.319933 0.507403 0.355799 1.326353
0.19162 0.531147 1.067238 0.193297 0.564695 1.064179
0.209834 0.50296 1.056593 0.208852 0.457587 1.058956
0.246471 0.476784 1.080447 0.225441 0.475079 1.09247
0.513719 0.329211 1.31875 0.508162 0.356553 1.325002
0.193207 0.530936 1.066493 0.19582 0.56468 1.062926
0.194797 0.529994 1.067812 0.198257 0.56301 1.063871
0.21214 0.502817 1.057201 0.209854 0.458684 1.060228
0.21299 0.501794 1.057137 0.209531 0.457497 1.060781
0.244362 0.479698 1.077972 0.224498 0.472178 1.089433
0.245733 0.478669 1.07879 0.224783 0.47236 1.090858
0.259961 0.47152 1.092486 0.281767 0.467207 1.079972
0.514616 0.329193 1.316372 0.506471 0.3565 1.324363
0.19466 0.529578 1.063831 0.198229 0.562112 1.059861
0.215241 0.501646 1.057641 0.207682 0.459037 1.063489
0.243007 0.482627 1.076816 0.221738 0.475008 1.089085
0.24406 0.481591 1.077078 0.22181 0.473839 1.08992
0.259889 0.47345 1.091997 0.281633 0.471549 1.079491
0.5149 0.330384 1.314748 0.507094 0.358154 1.322543
0.19681 0.529435 1.064155 0.201684 0.560259 1.059594
0.216478 0.501428 1.056315 0.204792 0.461413 1.064364
0.21659 0.500354 1.054925 0.203111 0.462899 1.063847
0.241848 0.485558 1.076002 0.217969 0.472048 1.089906
0.260344 0.475392 1.092422 0.281581 0.473599 1.080206
0.515165 0.331575 1.313098 0.50893 0.359255 1.31982
0.199209 0.529322 1.064938 0.205167 0.560539 1.059767
0.21808 0.500155 1.054064 0.204304 0.463646 1.063135
0.239429 0.488426 1.072969 0.214036 0.472632 1.087814
0.259528 0.478382 1.092232 0.28294 0.478832 1.078741
0.260064 0.477314 1.091572 0.281127 0.477886 1.079415
0.516673 0.331468 1.311656 0.508728 0.356413 1.319289
0.200985 0.529135 1.064556 0.206323 0.561499 1.05964
0.229251 0.499513 1.068891 0.213628 0.464319 1.078946
0.230429 0.498498 1.069393 0.213201 0.464128 1.0803
0.2333 0.497587 1.072904 0.214338 0.46565 1.084685
0.232192 0.496429 1.06934 0.211405 0.466911 1.082053
0.23525 0.495522 1.073172 0.213236 0.466816 1.08654
0.233783 0.49435 1.068982 0.209506 0.468427 1.083529
0.259901 0.480324 1.092514 0.282848 0.479546 1.07931
0.51669 0.332689 1.309649 0.509071 0.359338 1.317209
0.203827 0.527943 1.064504 0.209874 0.556622 1.059455
0.259284 0.483321 1.09267 0.283974 0.484049 1.078447
0.259953 0.482255 1.092239 0.283669 0.482329 1.078571
0.517347 0.33382 1.308597 0.512265 0.362282 1.3146
0.205733 0.527771 1.064363 0.212074 0.554993 1.059238
0.259767 0.485269 1.093144 0.28549 0.484336 1.078359
0.518408 0.333772 1.306511 0.513381 0.362483 1.312514
0.208761 0.526599 1.064649 0.216285 0.554311 1.058862
0.260399 0.488326 1.095473 0.290389 0.489597 1.078194
0.518719 0.334946 1.304955 0.512129 0.36129 1.311784
0.210825 0.526444 1.064795 0.218199 0.554186 1.059079
0.261337 0.490303 1.096737 0.292616 0.489815 1.078759
0.519774 0.336019 1.304502 0.513772 0.36326 1.311001
0.262943 0.493431 1.100767 0.294101 0.494213 1.08284
0.52084 0.335966 1.302443 0.516348 0.365369 1.308126
0.223296 0.523644 1.075339 0.234003 0.548038 1.068015
0.261886 0.496426 1.100163 0.292022 0.499796 1.082755
0.263794 0.495418 1.101878 0.294411 0.496982 1.08423
0.52123 0.337124 1.301017 0.515961 0.363077 1.306903
0.261638 0.498349 1.099363 0.290569 0.504825 1.082527
0.52108 0.33835 1.2988 0.515773 0.36209 1.304504
0.235802 0.520767 1.085711 0.247438 0.544149 1.077934
0.258557 0.502326 1.096835 0.282099 0.509661 1.083071
0.259561 0.501272 1.096982 0.284085 0.50836 1.082652
0.260667 0.500224 1.097306 0.285805 0.505785 1.082666
0.522714 0.33822 1.297596 0.516389 0.362617 1.304066
0.253939 0.506172 1.091605 0.274957 0.517335 1.07913
0.255887 0.505191 1.093409 0.277093 0.514424 1.080899
0.257333 0.504172 1.094331 0.279906 0.510692 1.081137
0.522844 0.339405 1.295802 0.514888 0.362473 1.303258
0.245202 0.513009 1.083906 0.261339 0.528914 1.073984
0.246588 0.512002 1.084746 0.263377 0.528254 1.074439
0.523382 0.340536 1.29461 0.51546 0.365187 1.30217
0.524456 0.340475 1.292605 0.518874 0.365026 1.298569
0.525003 0.341601 1.291435 0.51891 0.366694 1.297784
0.525463 0.342736 1.290139 0.519986 0.368118 1.296076
0.52627 0.342705 1.287767 0.5208 0.367469 1.29366
0.526263 0.343893 1.285806 0.519578 0.36802 1.292472
0.527027 0.344985 1.284963 0.521146 0.368814 1.291036
0.527967 0.344933 1.282808 0.523646 0.36988 1.287908
0.528338 0.346069 1.281407 0.523461 0.371122 1.286887
0.528208 0.347263 1.27929 0.522471 0.371071 1.285252
0.529884 0.34712 1.278211 0.524266 0.369107 1.283952
0.530005 0.34828 1.276465 0.524493 0.372029 1.282266
0.530584 0.349384 1.275377 0.525641 0.370415 1.280546
0.532069 0.349261 1.274041 0.528268 0.37024 1.278418
0.53233 0.350399 1.272508 0.527976 0.372342 1.27734
0.532535 0.351541 1.270899 0.52745 0.371961 1.276111
0.53353 0.351472 1.268884 0.528629 0.37242 1.274021
0.534148 0.352563 1.267869 0.527481 0.375026 1.274362
0.534104 0.353726 1.265922 0.52673 0.375234 1.27283
0.534313 0.354858 1.264338 0.528376 0.376852 1.270257
0.535691 0.354743 1.262888 0.529688 0.378218 1.268985
0.535979 0.355863 1.261424 0.52898 0.378066 1.268119
0.536046 0.357004 1.259652 0.529763 0.38011 1.265895
0.536926 0.35694 1.257522 0.531883 0.381452 1.263003
0.537598 0.358013 1.25661 0.532131 0.381849 1.26233
0.537773 0.359137 1.255003 0.531731 0.381804 1.261034
0.537919 0.359146 1.251871 0.532313 0.383206 1.257709
0.538279 0.360245 1.250535 0.531056 0.383179 1.257438
0.538321 0.361375 1.248761 0.53171 0.384789 1.255249
0.539412 0.361283 1.246968 0.533776 0.388376 1.253041
0.539438 0.36241 1.245182 0.532513 0.389889 1.2522
0.540084 0.363473 1.244257 0.532126 0.388724 1.251847
0.540547 0.364552 1.243081 0.533668 0.389187 1.249834
0.541646 0.364454 1.241322 0.534924 0.387571 1.247867
0.541454 0.365595 1.239254 0.533157 0.387231 1.24683
0.541535 0.366705 1.237566 0.535665 0.391155 1.243563
0.542996 0.36657 1.236323 0.537665 0.392205 1.242025
0.543049 0.36768 1.234607 0.536495 0.393696 1.241216
0.54316 0.368781 1.232973 0.536329 0.395781 1.23984
0.5444 0.368665 1.231444 0.536831 0.396275 1.238912
0.544612 0.369754 1.229957 0.535755 0.396153 1.238276
0.544623 0.370859 1.228201 0.537828 0.398266 1.235058
0.545333 0.370789 1.225973 0.539248 0.398219 1.232325
0.54499 0.371922 1.223748 0.536986 0.398894 1.231473
0.54545 0.372979 1.222615 0.536467 0.400667 1.2311
0.545371 0.374082 1.220758 0.537486 0.401552 1.228402
0.547418 0.373889 1.220358 0.539536 0.399831 1.227919
0.547664 0.37496 1.218946 0.541642 0.403034 1.22525
0.548089 0.376014 1.217777 0.543243 0.402974 1.223118
0.549334 0.37589 1.216311 0.543256 0.400888 1.222459
0.549932 0.376927 1.21538 0.542773 0.403414 1.222418
0.549592 0.378041 1.2132 0.543517 0.406164 1.219515
0.551049 0.377897 1.212031 0.543386 0.40604 1.219556
0.5513 0.378958 1.210649 0.544232 0.407288 1.217725
0.551373 0.380031 1.209033 0.545591 0.408396 1.215128
0.552018 0.379952 1.206802 0.546325 0.405245 1.212656
0.551962 0.381031 1.205026 0.544441 0.405816 1.212217
0.551915 0.382107 1.203266 0.545464 0.409006 1.209764
0.552788 0.383108 1.202724 0.547431 0.407895 1.208253
0.553778 0.382998 1.200975 0.549182 0.405417 1.205799
0.554116 0.384038 1.199734 0.550108 0.407194 1.204141
0.55455 0.385069 1.198622 0.550345 0.406258 1.203052
0.556065 0.384916 1.197576 0.550184 0.40403 1.203176
0.55617 0.38597 1.19604 0.549757 0.406625 1.202126
0.556781 0.386984 1.195169 0.551881 0.408414 1.200132
0.557124 0.388017 1.193949 0.552102 0.406795 1.198847
0.558048 0.387904 1.192148 0.553254 0.407857 1.196949
0.558401 0.388933 1.19095 0.553338 0.409378 1.195974
0.558422 0.389983 1.189323 0.552777 0.408646 1.194687
0.558594 0.391021 1.187895 0.552501 0.409246 1.193573
0.559925 0.390877 1.186643 0.55343 0.41272 1.192841
0.560085 0.391912 1.185208 0.553434 0.413485 1.191502
0.560068 0.392957 1.183549 0.554266 0.41522 1.189211
0.559979 0.392907 1.180484 0.555086 0.415823 1.185489
0.559648 0.393968 1.178432 0.554268 0.41597 1.183755
0.559902 0.394988 1.177134 0.554651 0.41642 1.182317
0.560509 0.394888 1.17499 0.555121 0.417446 1.180351
0.558238 0.396067 1.170472 0.551634 0.418294 1.176755
0.556279 0.397155 1.163479 0.549146 0.421598 1.170293
0.556675 0.398151 1.162391 0.548623 0.424091 1.169988
0.557803 0.399101 1.162236 0.548878 0.42522 1.170518
0.559693 0.400005 1.163048 0.550727 0.42722 1.171402
0.558808 0.401002 1.157488 0.547811 0.430826 1.16758
0.560121 0.401938 1.157572 0.550496 0.435121 1.166721
0.562817 0.402794 1.1594 0.554967 0.43348 1.167013
0.562602 0.402731 1.156291 0.555174 0.432762 1.163559
0.564199 0.40365 1.156731 0.558076 0.433666 1.162944
0.571367 0.404263 1.164164 0.565395 0.431311 1.170109
0.572211 0.404136 1.162382 0.565229 0.431879 1.169181
0.571383 0.405193 1.159779 0.563768 0.43543 1.167176
0.572414 0.406147 1.159504 0.565188 0.43587 1.166553
0.571424 0.406115 1.155454 0.561802 0.435396 1.164424
0.573931 0.407994 1.155469 0.56741 0.439806 1.162024
0.010629 -0.262132 1.07932 -0.032129 -0.24304 1.05192
0.01355 -0.258967 1.07813 -0.027851 -0.242653 1.051469
0.017573 -0.250755 1.079239 -0.021358 -0.221672 1.055117
0.018448 -0.249923 1.080269 -0.021826 -0.218802 1.055411
0.020781 -0.248952 1.079109 -0.01855 -0.216938 1.054967
0.020372 -0.246887 1.080539 -0.01887 -0.206511 1.056932
0.020686 -0.246107 1.082413 -0.019412 -0.202966 1.058429
0.024276 -0.245027 1.079346 -0.015214 -0.200717 1.055855
0.023391 -0.24225 1.083849 -0.01872 -0.207514 1.058029
0.026372 -0.241235 1.081687 -0.014392 -0.208195 1.056689
0.026567 -0.239118 1.082206 -0.012551 -0.203806 1.058375
0.027278 -0.2383 1.083482 -0.013107 -0.200832 1.05896
0.0283 -0.237456 1.084286 -0.011837 -0.198275 1.060044
0.029843 -0.23657 1.084294 -0.010677 -0.19883 1.05975
0.335527 0.148517 1.736312 0.310285 0.172886 1.725642
0.33786 0.148809 1.733071 0.311747 0.172962 1.722233
0.030068 -0.23445 1.084768 -0.010757 -0.196232 1.059997
0.03135 -0.233587 1.085171 -0.008828 -0.195678 1.060833
0.346278 0.151357 1.719017 0.316925 0.172374 1.707958
0.348236 0.151879 1.717169 0.319999 0.173778 1.706237
0.032228 -0.230652 1.087011 -0.008978 -0.194755 1.061881
0.033364 -0.2298 1.08764 -0.007232 -0.19365 1.062946
0.348992 0.154083 1.715687 0.320917 0.175763 1.704811
0.35111 0.154471 1.713155 0.323073 0.175248 1.702468
0.034448 -0.227621 1.086789 -0.005319 -0.194782 1.062436
0.035644 -0.226766 1.08732 -0.005059 -0.192828 1.062436
0.036098 -0.225962 1.088997 -0.003259 -0.191649 1.065029
0.354621 0.156542 1.70647 0.324531 0.175517 1.695612
0.035857 -0.223874 1.09019 -0.003211 -0.192085 1.066259
0.356866 0.159557 1.704948 0.328031 0.177329 1.694617
0.359675 0.159363 1.699454 0.331882 0.174644 1.689861
0.038527 -0.220044 1.091645 4.3e-05 -0.186509 1.068172
0.360547 0.161419 1.697435 0.33298 0.178736 1.687494
0.040132 -0.217064 1.092359 0.001661 -0.185403 1.068808
0.04091 -0.216234 1.093541 0.002592 -0.181667 1.070216
0.041964 -0.215389 1.094291 0.003581 -0.181841 1.070914
0.041111 -0.213327 1.096451 0.003394 -0.180111 1.073445
0.043497 -0.212415 1.095114 0.003915 -0.178126 1.070978
0.104559 -0.104829 1.139922 0.126788 -0.104501 1.15242
0.424861 0.22007 1.556975 0.396713 0.231355 1.547978
0.103571 -0.102605 1.142534 0.125347 -0.103861 1.154863
0.102944 -0.101365 1.141905 0.124367 -0.102203 1.154028
0.427185 0.224743 1.555453 0.399475 0.236736 1.546378
0.102274 -0.10012 1.141355 0.124274 -0.097706 1.15362
0.107606 -0.109767 1.102376 0.091788 -0.145109 1.095209
0.101637 -0.09888 1.140746 0.124462 -0.091991 1.153209
0.106737 -0.108531 1.102219 0.090243 -0.143648 1.094671
0.101726 -0.096769 1.141445 0.123172 -0.08187 1.152587
0.103646 -0.10799 1.103404 0.088803 -0.145308 1.096923
0.100493 -0.09546 1.141889 0.120293 -0.075997 1.151801
0.103813 -0.106856 1.101463 0.089358 -0.142523 1.095138
0.09739 -0.09489 1.14304 0.114935 -0.073317 1.151563
0.433906 0.231926 1.538397 0.406767 0.243736 1.52946
0.103492 -0.106593 1.097895 0.089791 -0.142349 1.092001
0.097404 -0.093726 1.141284 0.113848 -0.074564 1.149336
0.102726 -0.106286 1.095103 0.091551 -0.142566 1.090708
0.031037 -0.146672 1.08467 0.040552 -0.164025 1.091323
0.10213 -0.105081 1.094486 0.090595 -0.139325 1.089786
0.096332 -0.090307 1.142295 0.116788 -0.079282 1.153155
0.030098 -0.143652 1.089265 0.043696 -0.148107 1.098251
0.094816 -0.088957 1.143231 0.116725 -0.0815 1.155178
0.091656 -0.103545 1.104071 0.0799 -0.13716 1.099181
0.092638 -0.085387 1.14618 0.115398 -0.080205 1.158769
0.091088 -0.084025 1.147165 0.112881 -0.076304 1.159024
0.085328 -0.101276 1.104897 0.075697 -0.133516 1.101192
0.090239 -0.082754 1.146921 0.112099 -0.070913 1.158514
0.085729 -0.101096 1.100147 0.076503 -0.132243 1.096608
0.088522 -0.080209 1.146465 0.110227 -0.053534 1.156818
0.076093 -0.098245 1.102365 0.068793 -0.133445 1.100266
0.074235 -0.096887 1.103819 0.067239 -0.133632 1.102041
0.082325 -0.077528 1.138376 0.086608 -0.026543 1.136735
0.084845 -0.079495 1.120623 0.074985 -0.026065 1.11051
0.06465 -0.09307 1.10823 0.039528 -0.071932 1.091374
0.065518 -0.092221 1.109249 0.038878 -0.066917 1.09119
0.066734 -0.091412 1.109697 0.039773 -0.062703 1.091216
0.068367 -0.090653 1.109458 0.041288 -0.060407 1.09081
0.069867 -0.08988 1.109433 0.043444 -0.058274 1.091099
0.071431 -0.089116 1.109301 0.045434 -0.0583 1.091296
0.073946 -0.087516 1.11004 0.051826 -0.053898 1.094189
0.075056 -0.086699 1.110653 0.052051 -0.052024 1.094196
0.076293 -0.085898 1.111052 0.0531 -0.048874 1.094309
0.077703 -0.085119 1.111164 0.054753 -0.04407 1.094264
0.078795 -0.084301 1.111803 0.057427 -0.040254 1.09562
0.079296 -0.083406 1.11343 0.058284 -0.035455 1.097154
0.079772 -0.082506 1.115105 0.06076 -0.031951 1.09981
0.08057 -0.081648 1.11624 0.064717 -0.026732 1.10247
0.461861 0.262282 1.474578 0.435946 0.27366 1.46591
-0.159413 -0.134956 1.166614 -0.144678 -0.158699 1.178653
-0.160169 -0.132946 1.172358 -0.143612 -0.154339 1.185696
-0.158983 -0.132008 1.173184 -0.140299 -0.151688 1.18807
-0.158786 -0.131024 1.175313 -0.139443 -0.150026 1.190661
-0.157659 -0.130082 1.176218 -0.138162 -0.148344 1.191642
-0.158349 -0.127679 1.177995 -0.139171 -0.147646 1.193267
-0.15751 -0.126722 1.179286 -0.137727 -0.146219 1.194983
-0.156821 -0.125755 1.180775 -0.1366 -0.143118 1.196702
-0.157291 -0.123356 1.182267 -0.137598 -0.137725 1.197693
-0.155998 -0.122421 1.182959 -0.134033 -0.136031 1.200043
-0.155689 -0.120064 1.183417 -0.133351 -0.132366 1.200737
-0.154925 -0.119098 1.184811 -0.132206 -0.13149 1.202398
-0.154968 -0.116718 1.185741 -0.130413 -0.127083 1.204619
-0.154426 -0.114375 1.185888 -0.128876 -0.123122 1.205437
-0.153882 -0.112034 1.186031 -0.126693 -0.120634 1.206803
-0.210655 -0.154014 1.139138 -0.210356 -0.227573 1.140697
-0.150615 -0.104116 1.186686 -0.120653 -0.113052 1.209514
-0.213549 -0.154486 1.136685 -0.215252 -0.223882 1.13649
-0.211538 -0.153565 1.136516 -0.211916 -0.22404 1.13749
-0.217105 -0.153978 1.137292 -0.219879 -0.2246 1.136253
-0.222744 -0.154392 1.138124 -0.226922 -0.224647 1.135871
-0.224851 -0.153914 1.136971 -0.231433 -0.223516 1.132712
-0.146481 -0.094964 1.184608 -0.109908 -0.099331 1.212059
-0.189729 -0.143856 1.115638 -0.149619 -0.091521 1.147228
-0.145196 -0.092709 1.183746 -0.107478 -0.092225 1.211717
-0.188967 -0.142526 1.113315 -0.148499 -0.092102 1.145231
-0.189058 -0.141171 1.11203 -0.148189 -0.094103 1.144355
-0.143355 -0.089188 1.180589 -0.102033 -0.066874 1.209744
-0.190245 -0.140736 1.109865 -0.14816 -0.09455 1.143305
-0.238964 -0.152411 1.133174 -0.247369 -0.224213 1.127401
-0.188299 -0.139461 1.106127 -0.146056 -0.091027 1.139616
-0.140681 -0.085768 1.176315 -0.092626 -0.100988 1.213127
-0.098538 -0.062099 1.183514 -0.115981 -0.076775 1.172537
-0.189167 -0.138085 1.105793 -0.147582 -0.088895 1.138695
-0.137356 -0.111909 1.108 -0.171008 -0.105282 1.081277
-0.100822 -0.060537 1.185168 -0.117823 -0.072049 1.174214
0.504909 0.311705 1.363085 0.48142 0.318855 1.356042
-0.189305 -0.136738 1.104578 -0.148745 -0.090754 1.136719
-0.141212 -0.081005 1.178755 -0.105586 -0.084515 1.205462
-0.1041 -0.058841 1.188223 -0.121044 -0.068006 1.177091
-0.105202 -0.057426 1.188195 -0.123222 -0.063413 1.175997
-0.038967 -0.04569 1.137306 -0.017999 -0.041256 1.151151
-0.138427 -0.075287 1.17519 -0.108318 -0.066519 1.196828
-0.133703 -0.100884 1.107406 -0.161894 -0.085421 1.084415
-0.249885 -0.149154 1.120633 -0.26575 -0.20773 1.108139
-0.131068 -0.097862 1.107075 -0.158662 -0.085908 1.084798
-0.257426 -0.147557 1.127926 -0.273597 -0.200553 1.115089
-0.13129 -0.095586 1.108175 -0.157905 -0.078234 1.086286
-0.128612 -0.094833 1.106964 -0.154559 -0.07666 1.085565
-0.041617 -0.027013 1.132189 -0.017984 -0.015603 1.147044
-0.04202 -0.025785 1.131246 -0.018366 -0.012227 1.145855
-0.260526 -0.138443 1.106917 -0.279796 -0.171005 1.090819
-0.232499 -0.121597 1.110463 -0.195203 -0.072344 1.140373
-0.092871 -0.042551 1.139171 -0.110164 -0.055598 1.128042
-0.042228 -0.023443 1.128498 -0.018677 -0.007672 1.142767
-0.092333 -0.041425 1.136933 -0.112076 -0.05292 1.123847
-0.264045 -0.135161 1.104695 -0.287551 -0.167392 1.084805
-0.048136 -0.017745 1.130947 -0.02834 0.006871 1.141459
-0.092898 -0.035469 1.134062 -0.116382 -0.04179 1.117662
-0.050344 -0.017252 1.13026 -0.030263 0.009531 1.140718
-0.268662 -0.130462 1.102372 -0.290065 -0.164651 1.084445
-0.090928 -0.034589 1.12988 -0.115413 -0.040277 1.112661
-0.052541 -0.015685 1.131896 -0.031554 0.008641 1.143299
-0.089891 -0.032505 1.129285 -0.114364 -0.038187 1.112096
-0.279032 -0.128249 1.109073 -0.302128 -0.163959 1.089656
-0.087768 -0.030605 1.127198 -0.112005 -0.035964 1.110164
-0.281794 -0.127741 1.108642 -0.30346 -0.162853 1.09045
-0.087502 -0.029466 1.125357 -0.113994 -0.031785 1.10629
-0.056803 -0.011418 1.133448 -0.034398 -0.000855 1.147692
-0.058606 -0.009917 1.134506 -0.035953 -0.004238 1.149604
-0.009419 0.015659 1.140314 -0.017811 -0.038406 1.143335
-0.279205 -0.125109 1.103133 -0.304061 -0.152357 1.081748
-0.085361 -0.025345 1.124066 -0.112358 -0.022286 1.103989
-0.059611 -0.008572 1.134424 -0.036472 -0.007925 1.150573
-0.011144 0.01605 1.138965 -0.022992 -0.039238 1.13991
-0.277006 -0.123846 1.099391 -0.30147 -0.152492 1.078433
-0.185501 -0.092338 1.075919 -0.17619 -0.125249 1.086198
-0.084699 -0.023219 1.123978 -0.112255 -0.02223 1.103765
-0.076513 -0.010673 1.142774 -0.066535 -0.022131 1.151424
-0.061798 -0.006991 1.136024 -0.038923 -0.010929 1.152647
-0.013588 0.016614 1.138706 -0.024491 -0.037947 1.140163
-0.184555 -0.090164 1.075596 -0.171065 -0.143214 1.090971
-0.184024 -0.089222 1.077088 -0.160472 -0.138978 1.100737
-0.183183 -0.088306 1.078217 -0.151041 -0.127084 1.108277
-0.18157 -0.08746 1.07843 -0.144196 -0.113656 1.111909
-0.084162 -0.022143 1.121768 -0.11185 -0.020762 1.101382
-0.073688 -0.007868 1.141974 -0.060623 -0.017803 1.152612
-0.062423 -0.00572 1.135399 -0.039354 -0.013868 1.152777
-0.061491 -0.00372 1.138762 -0.041381 -0.014509 1.154388
-0.015905 0.016035 1.135865 -0.028962 -0.038483 1.13584
-0.014922 0.016912 1.13677 -0.028073 -0.036524 1.13656
-0.024707 0.033003 1.180972 0.000555 0.066181 1.191812
-0.192301 -0.090197 1.079153 -0.200241 -0.132157 1.075513
-0.181107 -0.085247 1.078674 -0.138321 -0.08692 1.114808
-0.083209 -0.020077 1.12128 -0.110565 -0.017433 1.100984
-0.065287 -0.005092 1.135613 -0.041955 -0.014083 1.153352
-0.063006 -0.003363 1.137056 -0.040456 -0.014926 1.154559
-0.016851 0.01624 1.133353 -0.029582 -0.039478 1.133735
-0.182681 -0.083837 1.07921 -0.140336 -0.076685 1.114312
-0.082671 -0.017938 1.121361 -0.110252 -0.013201 1.100633
-0.064193 -0.001977 1.137228 -0.040752 -0.013745 1.155421
-0.063444 -0.001032 1.138508 -0.039119 -0.010027 1.156898
-0.018475 0.016608 1.131866 -0.032161 -0.037183 1.131302
-0.194192 -0.087486 1.07872 -0.215933 -0.108869 1.061818
-0.081676 -0.015886 1.120812 -0.10918 -0.009553 1.099932
-0.064456 0.00032 1.138431 -0.037213 -0.011258 1.159279
-0.061704 0.00085 1.136859 -0.034096 -0.009313 1.157728
-0.019116 0.016741 1.128916 -0.035222 -0.036468 1.126631
-0.029988 0.036521 1.181713 -0.00644 0.077217 1.19017
-0.195065 -0.086136 1.078419 -0.219947 -0.096797 1.058005
-0.080823 -0.013811 1.120457 -0.108747 -0.00992 1.099604
-0.063187 0.002298 1.137454 -0.033003 -0.01334 1.160975
-0.059816 0.002692 1.134996 -0.028067 -0.012077 1.159456
-0.057791 0.003364 1.134446 -0.024838 -0.007158 1.159085
-0.055582 0.003995 1.133628 -0.02244 0.000108 1.157371
-0.021294 0.017241 1.12826 -0.038701 -0.035895 1.125078
-0.029196 0.037419 1.178871 -0.005655 0.079049 1.18714
-0.198311 -0.084568 1.080894 -0.224595 -0.087281 1.058642
-0.080115 -0.011712 1.1203 -0.107383 -0.003905 1.099393
-0.056225 0.005262 1.133034 -0.017373 0.000419 1.16095
-0.053703 0.005821 1.131764 -0.015634 0.004929 1.158488
-0.021753 0.01733 1.125058 -0.040206 -0.03525 1.121069
-0.032042 0.038098 1.179122 -0.00825 0.07993 1.187549
-0.196964 -0.082422 1.080114 -0.225272 -0.073667 1.055224
-0.079478 -0.009602 1.120241 -0.106016 -0.001483 1.099821
-0.078614 -0.008688 1.121337 -0.104429 -0.00081 1.101507
-0.054952 0.007216 1.132039 -0.015445 0.01047 1.159174
-0.052453 0.007774 1.130796 -0.016058 0.012414 1.155491
-0.017997 0.016414 1.115651 -0.036086 -0.035298 1.111754
-0.194277 -0.080413 1.077761 -0.222396 -0.05165 1.051375
-0.191725 -0.077652 1.081126 -0.187723 -0.010105 1.078781
-0.078182 -0.00654 1.121559 -0.102415 0.002295 1.102739
-0.019532 0.01676 1.114079 -0.039358 -0.033274 1.108715
-0.035558 0.040056 1.178764 -0.013206 0.083206 1.186021
-0.193864 -0.078188 1.078071 -0.21451 -0.026315 1.056063
-0.193996 -0.07717 1.080346 -0.205196 -0.015557 1.065544
-0.0768 -0.003495 1.122758 -0.098538 0.007899 1.105398
-0.018473 0.017584 1.111017 -0.038992 -0.030146 1.104845
-0.034285 0.040823 1.175216 -0.011905 0.083416 1.182559
-0.076119 -0.0014 1.122633 -0.097912 0.007899 1.105529
-0.074988 -0.000539 1.12336 -0.096611 0.007668 1.106562
-0.074647 0.000484 1.125184 -0.094058 0.01021 1.109781
-0.038784 0.041939 1.177961 -0.017921 0.085293 1.184195
-0.291558 -0.109058 1.098734 -0.316558 -0.131793 1.076991
-0.072937 0.00346 1.125926 -0.091137 0.013592 1.111344
-0.032537 0.020914 1.123943 -0.056231 -0.025696 1.115368
-0.07307 0.005722 1.12693 -0.089905 0.014628 1.113505
-0.07167 0.007658 1.125798 -0.088644 0.016582 1.112262
-0.070781 0.00857 1.126861 -0.08703 0.017883 1.113802
-0.070874 0.009718 1.125505 -0.087697 0.020269 1.111818
-0.037108 0.024168 1.123731 -0.064634 -0.016283 1.11152
-0.0695 0.011649 1.124405 -0.085586 0.024237 1.110917
-0.035373 0.02372 1.117396 -0.062697 -0.016709 1.105281
-0.037972 0.025465 1.123475 -0.064287 -0.013236 1.111826
-0.068785 0.01372 1.124223 -0.084451 0.028278 1.110709
-0.048298 0.046374 1.172828 -0.026826 0.08542 1.180271
-0.041247 0.027321 1.12288 -0.07222 -0.0051 1.106918
-0.295283 -0.099345 1.093652 -0.321793 -0.117679 1.070233
-0.13058 -0.003288 1.131195 -0.117066 0.009699 1.139642
-0.046017 0.032885 1.127562 -0.071756 0.020317 1.111872
-0.04911 0.034748 1.130505 -0.074433 0.029306 1.11385
-0.136184 -0.000969 1.133363 -0.125318 0.014402 1.139459
-0.050122 0.0418 1.142164 -0.062352 0.076512 1.127512
-0.049612 0.042817 1.143783 -0.058536 0.080695 1.130833
-0.052016 0.044601 1.149647 -0.057245 0.084673 1.138828
-0.137316 0.00043 1.133395 -0.126391 0.016006 1.139498
-0.304699 -0.090574 1.09599 -0.332742 -0.105511 1.070863
-0.173991 -0.003868 1.154144 -0.162352 -0.004819 1.1634
-0.172326 -0.003044 1.154313 -0.16303 -0.013944 1.163121
-0.166228 -0.003023 1.148803 -0.157433 -0.015241 1.157399
-0.140344 0.001082 1.133624 -0.130329 0.017896 1.138864
-0.305954 -0.089132 1.096038 -0.333529 -0.104203 1.071347
-0.260209 -0.081746 1.069603 -0.225137 -0.018591 1.096585
-0.141447 0.002477 1.133614 -0.130774 0.022091 1.138935
-0.262834 -0.08123 1.069125 -0.229344 -0.018312 1.094735
-0.264095 -0.079823 1.069225 -0.230128 -0.014058 1.094992
-0.143954 0.004214 1.131721 -0.13128 0.021846 1.138888
-0.263523 -0.079598 1.065282 -0.235946 -0.012899 1.085125
-0.154623 0.006346 1.141784 -0.14292 0.024029 1.148211
-0.149924 0.006623 1.13429 -0.138527 0.025768 1.14025
-0.287422 -0.07891 1.080232 -0.31316 -0.03882 1.052862
-0.275006 -0.07697 1.073093 -0.269275 -0.00281 1.072017
-0.156567 0.007983 1.139126 -0.144951 0.027185 1.145264
-0.156091 0.009144 1.133386 -0.141856 0.027303 1.14174
-0.155403 0.010193 1.13108 -0.140701 0.027268 1.139959
-0.180253 -0.010536 1.10758 -0.183024 -0.049204 1.110722
-0.158932 0.010951 1.131905 -0.145581 0.027935 1.139764
-0.252016 -0.064691 1.058295 -0.246174 -0.082096 1.065376
-0.178685 -0.011772 1.099967 -0.180004 -0.049439 1.104149
-0.177316 -0.010923 1.100467 -0.178925 -0.05041 1.104693
-0.161805 0.013888 1.132708 -0.147829 0.030964 1.141029
-0.162843 0.015333 1.128941 -0.148274 0.031654 1.137869
-0.208745 -0.038307 1.058352 -0.214339 -0.073938 1.057755
-0.201715 -0.038248 1.052414 -0.204199 -0.079526 1.055275
-0.204725 -0.036795 1.057889 -0.2026 -0.079343 1.064985
-0.009363 0.178086 1.315752 0.009086 0.172853 1.327673
-0.165029 0.018132 1.128872 -0.149456 0.035382 1.138435
-0.068531 0.084225 1.176872 -0.077079 0.039746 1.180275
-0.068899 0.092978 1.194511 -0.042272 0.091691 1.21278
-0.007665 0.179768 1.313743 0.012419 0.17475 1.326548
-0.211811 -0.035455 1.059277 -0.233352 -0.057553 1.042994
-0.166766 0.019664 1.129647 -0.15029 0.037446 1.139834
-0.067262 0.083691 1.171042 -0.078978 0.042957 1.171491
-0.070592 0.094585 1.19541 -0.045083 0.094755 1.212636
-0.005396 0.181183 1.310734 0.01485 0.174419 1.324082
-0.068304 0.083858 1.168594 -0.081992 0.046037 1.16707
-0.070333 0.096825 1.195889 -0.046554 0.096741 1.211987
-0.003739 0.182862 1.308787 0.016813 0.175468 1.322477
-0.166532 0.020837 1.124306 -0.150088 0.039775 1.134303
-0.069868 0.098999 1.196062 -0.044787 0.100042 1.212784
-0.002283 0.184625 1.307189 0.017197 0.175554 1.320708
-0.000711 0.185353 1.307288 0.019845 0.175194 1.321687
-0.165559 0.021806 1.121683 -0.148101 0.041184 1.13241
-0.066468 0.084216 1.160451 -0.082714 0.045932 1.157275
-0.071514 0.100596 1.196891 -0.045912 0.100614 1.21421
0.000762 0.187097 1.305652 0.021681 0.178292 1.31991
-0.072064 0.1031 1.198566 -0.04748 0.10356 1.215088
0.001908 0.188985 1.304588 0.021896 0.181174 1.318057
-0.069242 0.085973 1.158995 -0.085357 0.048873 1.155672
-0.072642 0.105617 1.200284 -0.048279 0.109312 1.215929
0.003275 0.190763 1.303132 0.02364 0.181889 1.317104
0.004957 0.191428 1.303021 0.024886 0.180677 1.317226
0.0058 0.193443 1.302479 0.024701 0.183989 1.315761
0.007849 0.19393 1.301716 0.027274 0.184507 1.31527
-0.170611 0.026404 1.120193 -0.151248 0.053654 1.131129
-0.071382 0.086324 1.154272 -0.087215 0.046281 1.151745
-0.07288 0.109089 1.19989 -0.045826 0.11705 1.216398
-0.072748 0.08659 1.152344 -0.085426 0.045301 1.152288
-0.073856 0.110474 1.199725 -0.046829 0.119426 1.216007
-0.209961 0.000737 1.095615 -0.221008 -0.036337 1.091783
-0.073553 0.086686 1.149625 -0.08312 0.043624 1.152136
-0.075351 0.112032 1.200326 -0.048368 0.120793 1.216634
-0.212474 0.000188 1.09297 -0.220587 -0.030436 1.090631
-0.210907 0.001007 1.093266 -0.221766 -0.032902 1.089107
-0.172974 0.029266 1.116757 -0.15401 0.058903 1.126963
-0.074334 0.086775 1.146883 -0.082391 0.041811 1.150874
-0.074599 0.114112 1.200078 -0.047386 0.121334 1.216866
-0.213249 0.001524 1.092549 -0.225968 -0.021355 1.085104
-0.173707 0.030585 1.116279 -0.154379 0.060486 1.126716
-0.07545 0.085764 1.142299 -0.08 0.039887 1.148946
-0.076216 0.087199 1.145704 -0.082519 0.040148 1.151395
-0.074715 0.115207 1.198645 -0.047843 0.123053 1.215074
-0.176807 0.031277 1.116531 -0.158804 0.061729 1.125829
-0.076283 0.084674 1.137345 -0.075608 0.038636 1.147741
-0.076916 0.086063 1.140545 -0.077941 0.037724 1.150251
-0.074791 0.116287 1.197155 -0.047817 0.125219 1.213417
-0.177599 0.032609 1.116124 -0.1601 0.065586 1.124551
-0.078567 0.084026 1.134445 -0.076193 0.037278 1.146213
-0.077249 0.084823 1.134906 -0.076158 0.036705 1.146076
-0.073746 0.118257 1.196476 -0.045675 0.12931 1.212963
-0.081794 0.082472 1.130574 -0.074748 0.035599 1.145729
-0.080283 0.083211 1.130767 -0.074312 0.034862 1.145483
-0.080287 0.084403 1.133063 -0.075436 0.034926 1.147235
-0.073737 0.119303 1.194865 -0.046141 0.131555 1.210762
-0.061549 0.168152 1.278915 -0.045195 0.174509 1.28757
-0.033319 0.178798 1.276453 -0.060343 0.171371 1.261966
-0.083785 0.080559 1.12502 -0.073543 0.030445 1.143202
-0.083005 0.081512 1.126219 -0.073724 0.031475 1.1437
-0.062398 0.169526 1.278496 -0.046312 0.178446 1.286333
-0.032639 0.179494 1.273542 -0.060066 0.17268 1.258633
-0.090653 0.076541 1.119383 -0.077323 0.026306 1.139841
-0.089544 0.077397 1.120129 -0.074763 0.026498 1.141805
-0.088386 0.078239 1.120808 -0.073529 0.026147 1.142805
-0.08703 0.079023 1.121215 -0.072268 0.024733 1.14362
-0.085895 0.081052 1.124188 -0.07471 0.026986 1.143957
-0.074167 0.121541 1.192311 -0.047613 0.136421 1.2069
-0.062001 0.170392 1.276101 -0.046734 0.179468 1.283387
-0.032378 0.18178 1.274027 -0.058931 0.177755 1.258932
-0.100038 0.072066 1.114898 -0.084805 0.014538 1.138294
-0.098326 0.072755 1.114839 -0.084005 0.015138 1.137587
-0.096921 0.073528 1.11519 -0.082262 0.01672 1.138033
-0.095227 0.074219 1.115148 -0.079961 0.018173 1.138294
-0.093915 0.075017 1.11562 -0.078759 0.02086 1.138297
-0.092269 0.075718 1.115638 -0.077195 0.022967 1.137969
-0.092108 0.076845 1.117664 -0.07824 0.025459 1.138823
-0.074873 0.122828 1.191758 -0.047561 0.138232 1.206747
-0.191763 0.036934 1.117815 -0.182198 0.084273 1.117223
-0.105426 0.068806 1.109523 -0.094303 0.005685 1.130989
-0.105389 0.069958 1.111692 -0.094566 0.005007 1.133333
-0.104181 0.070789 1.112311 -0.093191 0.005402 1.134193
-0.101013 0.07224 1.112544 -0.084884 0.012654 1.13711
-0.032922 0.183989 1.271344 -0.057978 0.17633 1.258101
-0.193805 0.036256 1.114561 -0.193028 0.08401 1.106673
-0.192855 0.037193 1.115588 -0.18968 0.084269 1.109768
-0.108823 0.067328 1.105961 -0.103821 0.001801 1.123286
-0.108207 0.068319 1.107357 -0.102618 0.002996 1.125118
-0.107268 0.069222 1.108329 -0.100851 0.004782 1.126565
-0.062005 0.173461 1.270835 -0.050226 0.183102 1.275775
-0.204125 0.036213 1.119101 -0.211917 0.071245 1.106382
-0.200235 0.036524 1.1166 -0.20467 0.076917 1.105703
-0.197994 0.037186 1.116077 -0.19843 0.080264 1.107996
-0.112747 0.06715 1.105296 -0.109291 -0.001944 1.122192
-0.111345 0.067929 1.105662 -0.106419 -0.002461 1.123984
-0.074486 0.12581 1.186443 -0.048805 0.143553 1.199773
-0.25569 0.034189 1.152508 -0.253532 -0.003889 1.160874
-0.21127 0.036618 1.121933 -0.217272 0.063018 1.112218
-0.208417 0.037159 1.120701 -0.213222 0.068717 1.111058
-0.114831 0.066477 1.102226 -0.116865 -0.006771 1.115773
-0.013791 0.205375 1.285872 -0.029054 0.254688 1.263028
0.012053 0.197314 1.250099 0.012412 0.250152 1.235399
-0.121145 0.06578 1.102457 -0.122383 -0.006518 1.116367
-0.030983 0.194137 1.274516 -0.050571 0.214359 1.257061
-0.021828 0.201421 1.281094 -0.040093 0.248537 1.257041
-0.02157 0.202747 1.283401 -0.040436 0.253708 1.257914
-0.020772 0.203821 1.284807 -0.040338 0.25371 1.259201
-0.017488 0.206629 1.287534 -0.036611 0.253451 1.263049
-0.027585 0.199286 1.277959 -0.041727 0.236252 1.259155
-0.02532 0.199679 1.27692 -0.039323 0.239571 1.257383
-0.023506 0.200277 1.276624 -0.038192 0.242186 1.256112
-0.022811 0.201394 1.278191 -0.038869 0.242922 1.256959
-0.124648 0.065413 1.097656 -0.129287 -0.009206 1.109423
-0.301958 0.004499 1.099581 -0.309939 0.01104 1.091155
-0.301459 0.005538 1.101139 -0.309167 0.01427 1.092636
-0.300666 0.007655 1.104483 -0.309905 0.017586 1.094393
-0.299917 0.008655 1.105778 -0.308975 0.021475 1.09541
-0.299671 0.010875 1.109734 -0.309367 0.029271 1.097912
-0.299809 0.013169 1.114124 -0.308908 0.037461 1.101918
-0.305048 0.022142 1.134896 -0.312426 -0.004513 1.132589
-0.24566 0.046561 1.134959 -0.230075 0.064158 1.145055
-0.307296 0.022649 1.133874 -0.319039 -0.016828 1.12971
-0.242238 0.04702 1.129598 -0.226681 0.062984 1.139967
-0.082417 0.136859 1.168081 -0.067122 0.172579 1.169801
-0.046325 0.204613 1.266539 -0.04415 0.165438 1.279026
-0.045167 0.205517 1.26734 -0.035409 0.170124 1.28348
-0.043315 0.206101 1.267021 -0.027661 0.174581 1.285717
-0.042428 0.207129 1.268257 -0.021191 0.180066 1.289132
-0.042003 0.208371 1.270242 -0.016329 0.18599 1.292505
-0.040958 0.209328 1.271225 -0.014107 0.190431 1.293195
-0.082818 0.136745 1.164758 -0.070534 0.176059 1.163464
-0.050712 0.204714 1.2665 -0.060365 0.165041 1.271735
-0.048974 0.205356 1.266375 -0.056291 0.166291 1.272929
-0.152114 0.071901 1.093541 -0.177234 0.014032 1.085594
-0.053674 0.205597 1.266823 -0.067677 0.169042 1.268443
-0.25319 0.048341 1.122499 -0.263987 0.055932 1.111672
-0.0852 0.137087 1.160386 -0.078157 0.185593 1.153058
-0.320834 0.02686 1.129918 -0.338068 -0.026234 1.122979
-0.251151 0.050261 1.120971 -0.26295 0.061816 1.108513
-0.085908 0.135819 1.155195 -0.086678 0.186502 1.141779
-0.270163 0.04035 1.113363 -0.26817 0.060272 1.11151
-0.267906 0.041045 1.112961 -0.268076 0.058486 1.109619
-0.264681 0.041538 1.111464 -0.265119 0.05856 1.10795
-0.262687 0.042281 1.111348 -0.264105 0.058333 1.107134
-0.260069 0.042893 1.110523 -0.26379 0.05636 1.104739
-0.257146 0.043437 1.109347 -0.261989 0.055596 1.10281
-0.258006 0.044775 1.112451 -0.263252 0.057558 1.105442
-0.254451 0.045181 1.110551 -0.259689 0.057931 1.103555
-0.249509 0.052259 1.119896 -0.259425 0.066663 1.108516
-0.241066 0.056235 1.120924 -0.238843 0.074553 1.119278
-0.109667 0.106542 1.115638 -0.124882 0.15298 1.093111
-0.109326 0.107641 1.117407 -0.125679 0.15214 1.09448
-0.108626 0.108628 1.118702 -0.124626 0.151988 1.09631
-0.107407 0.109451 1.119309 -0.123476 0.152605 1.096912
-0.106258 0.110296 1.120007 -0.122709 0.153512 1.097308
-0.105487 0.111261 1.121211 -0.121691 0.153893 1.098836
-0.105181 0.112378 1.123038 -0.122809 0.151992 1.100324
-0.104143 0.11326 1.123888 -0.122725 0.149856 1.101196
-0.103354 0.114223 1.125072 -0.120352 0.150348 1.103678
-0.102617 0.115203 1.126327 -0.119087 0.15182 1.105208
-0.08882 0.132823 1.148481 -0.099776 0.176564 1.12956
-0.087389 0.134834 1.151117 -0.09206 0.185389 1.134939
-0.085568 0.135447 1.150889 -0.088217 0.183197 1.136846
-0.278399 0.04092 1.116988 -0.27023 0.065609 1.119811
-0.275319 0.041453 1.115682 -0.270216 0.064644 1.116006
-0.115154 0.102087 1.108204 -0.123576 0.151868 1.090047
-0.114541 0.103095 1.109601 -0.123482 0.154852 1.090564
-0.113969 0.104116 1.111053 -0.125708 0.154611 1.090168
-0.112308 0.106002 1.113284 -0.127621 0.152053 1.090718
-0.111307 0.106891 1.114175 -0.126493 0.152306 1.091852
-0.10251 0.11742 1.126991 -0.120843 0.153069 1.104672
-0.102622 0.118684 1.129395 -0.121348 0.154513 1.106746
-0.101866 0.119662 1.130631 -0.120718 0.154982 1.10802
-0.100962 0.120591 1.131669 -0.121057 0.156905 1.107902
-0.100354 0.121621 1.133109 -0.120552 0.15843 1.109152
-0.099817 0.122675 1.134647 -0.119474 0.160583 1.110824
-0.099111 0.123674 1.135958 -0.118417 0.16151 1.112415
-0.098174 0.124595 1.136956 -0.11767 0.161527 1.113505
-0.097392 0.12557 1.138167 -0.116843 0.162358 1.114791
-0.096618 0.126548 1.139389 -0.11585 0.164828 1.115806
-0.096143 0.12763 1.141025 -0.115226 0.166492 1.11741
-0.095464 0.128643 1.142382 -0.113555 0.16837 1.119277
-0.091835 0.131133 1.144263 -0.108163 0.175038 1.121386
-0.090524 0.133181 1.147054 -0.103357 0.180095 1.125926
-0.11985 0.100986 1.10635 -0.124882 0.154837 1.089831
-0.118339 0.101718 1.106575 -0.124484 0.156421 1.088977
-0.117364 0.102614 1.107496 -0.126293 0.153309 1.088685
-0.122228 0.100371 1.103671 -0.120466 0.155833 1.092008
-0.121649 0.101387 1.105105 -0.123348 0.154398 1.091312
-0.126602 0.10036 1.103567 -0.122789 0.152902 1.09419
-0.124046 0.100777 1.102454 -0.120508 0.155596 1.092292
-0.170475 0.079683 1.094651 -0.199936 0.028894 1.081588
-0.074955 0.206367 1.248927 -0.092073 0.196967 1.240476
-0.071489 0.207217 1.244503 -0.089624 0.202633 1.23401
-0.317375 0.045715 1.125826 -0.283578 0.076373 1.151324
-0.17808 0.083751 1.094267 -0.208758 0.036005 1.079501
-0.128567 0.114613 1.114466 -0.115691 0.063409 1.136934
-0.126804 0.115267 1.114381 -0.112345 0.065169 1.137809
-0.127012 0.11655 1.116854 -0.110601 0.069131 1.141131
-0.31443 0.046358 1.121321 -0.27808 0.072007 1.150104
-0.178417 0.084934 1.093339 -0.208894 0.039392 1.078275
-0.130737 0.112706 1.109297 -0.12804 0.05759 1.124851
-0.130196 0.113745 1.110787 -0.123861 0.060967 1.128618
-0.128333 0.114367 1.110574 -0.11951 0.063059 1.129991
-0.121989 0.123295 1.122161 -0.09705 0.102999 1.14623
-0.132544 0.113107 1.108048 -0.135247 0.0571 1.119651
-0.072838 0.212148 1.244096 -0.092666 0.20758 1.232488
-0.122797 0.131593 1.12787 -0.095084 0.131443 1.148925
-0.123606 0.132894 1.127511 -0.097296 0.13496 1.146954
-0.039279 0.224926 1.233058 -0.017029 0.240554 1.242348
-0.124129 0.135342 1.129009 -0.098925 0.140247 1.146861
-0.074445 0.219584 1.244972 -0.092498 0.216938 1.233957
-0.126047 0.137023 1.130109 -0.10189 0.147755 1.145667
-0.075283 0.222361 1.247139 -0.092554 0.220238 1.23649
-0.041126 0.224801 1.227481 -0.01252 0.232969 1.243194
-0.161897 0.111558 1.106482 -0.139032 0.143239 1.117172
-0.189305 0.094272 1.091539 -0.223928 0.062483 1.069861
-0.151026 0.118955 1.108832 -0.17485 0.093407 1.096281
-0.126738 0.140558 1.130401 -0.104652 0.160744 1.141876
-0.190998 0.09583 1.092232 -0.22577 0.066874 1.069773
-0.129552 0.141302 1.130442 -0.107254 0.165259 1.141124
-0.288023 0.057575 1.088256 -0.253832 0.06621 1.118205
-0.192303 0.09728 1.092463 -0.225589 0.071439 1.070525
-0.166529 0.11494 1.105982 -0.141361 0.140015 1.12017
-0.153936 0.121969 1.109745 -0.178716 0.106672 1.093866
-0.130594 0.142686 1.130385 -0.109822 0.169187 1.13922
-0.288055 0.058764 1.087023 -0.252397 0.066543 1.11853
-0.166927 0.116122 1.105116 -0.141484 0.138999 1.120064
-0.131635 0.14407 1.130327 -0.111689 0.174043 1.137595
-0.286797 0.060828 1.086458 -0.252706 0.067711 1.116657
-0.168191 0.117568 1.105318 -0.142382 0.138322 1.12109
-0.198199 0.102197 1.095494 -0.231368 0.07969 1.072857
-0.16965 0.119076 1.10576 -0.143982 0.137677 1.121955
-0.156128 0.125804 1.108382 -0.182892 0.123148 1.087673
-0.135107 0.146066 1.129795 -0.121735 0.184193 1.129846
