# .PCD v0.7 - Point Cloud Data file format
VERSION 0.7
FIELDS x y z normal_x normal_y normal_z
SIZE 4 4 4 4 4 4
TYPE F F F F F F
COUNT 1 1 1 1 1 1
WIDTH 888
HEIGHT 1
VIEWPOINT 0 0 0 1 0 0 0
POINTS 888
DATA ascii
1.225291 0.153065 0.923037 1.236079 0.153273 0.917429
1.255612 0.201472 0.830278 1.265123 0.210117 0.823832
1.239091 0.362568 0.269644 1.234908 0.386415 0.261509
1.307198 0.443873 0.150702 1.290068 0.449021 0.18082
1.264542 0.431539 0.099397 1.25046 0.458699 0.098918
1.262887 0.430887 0.097971 1.248529 0.460031 0.095675
1.264829 0.432129 0.09809 1.251099 0.460459 0.095297
1.280008 0.468182 0.013118 1.272008 0.477472 0.02271
1.224728 0.154571 0.921733 1.235988 0.155037 0.915868
1.251578 0.201882 0.824983 1.259801 0.210907 0.819274
1.283523 0.234853 0.78607 1.276717 0.22453 0.791841
1.307576 0.444978 0.151267 1.292522 0.446974 0.180374
1.264721 0.432033 0.101232 1.252165 0.461677 0.094171
1.261923 0.430778 0.099306 1.24807 0.459537 0.096282
1.279035 0.468641 0.012448 1.271509 0.476972 0.022281
1.279063 0.468851 0.011821 1.27138 0.477677 0.021224
1.224112 0.156071 0.920327 1.235576 0.158072 0.914296
1.249879 0.202628 0.823585 1.256904 0.212154 0.818546
1.307006 0.445843 0.150571 1.293369 0.444647 0.180172
1.26401 0.432059 0.102688 1.251964 0.460967 0.09535
1.262894 0.43169 0.101483 1.250462 0.460923 0.094593
1.278873 0.469758 0.01137 1.27116 0.478918 0.020161
1.279151 0.470112 0.010813 1.271435 0.479674 0.018799
1.223654 0.157003 0.921124 1.233894 0.158601 0.915751
1.249205 0.203526 0.823903 1.255914 0.210971 0.819236
1.276604 0.233054 0.786497 1.271423 0.221216 0.791331
1.246295 0.367185 0.280272 1.240862 0.392348 0.273055
1.245197 0.36699 0.278529 1.239818 0.391832 0.271395
1.307168 0.44684 0.151032 1.294219 0.444599 0.18029
1.259155 0.429679 0.103042 1.245228 0.458891 0.099659
1.259295 0.429972 0.102387 1.245188 0.460655 0.097613
1.258716 0.429883 0.101417 1.246018 0.459115 0.095138
1.22337 0.158527 0.920357 1.233787 0.15892 0.914938
1.246607 0.204131 0.820988 1.253068 0.209414 0.816664
1.243248 0.36647 0.279427 1.238819 0.39269 0.270268
1.307462 0.448151 0.150752 1.294436 0.445588 0.180565
1.258331 0.429644 0.104442 1.24641 0.457615 0.097995
1.261091 0.431322 0.104944 1.247574 0.461233 0.099744
1.281289 0.473769 0.009332 1.274692 0.481265 0.017569
1.223494 0.160084 0.920375 1.234137 0.160195 0.914848
1.241153 0.366162 0.279292 1.238832 0.392885 0.267062
1.307154 0.448908 0.150987 1.294183 0.446443 0.180548
1.261706 0.432051 0.106993 1.250719 0.460373 0.097988
1.223387 0.161625 0.919948 1.23402 0.161447 0.914438
1.239042 0.365847 0.279141 1.236771 0.393363 0.266397
1.306381 0.449667 0.150193 1.293443 0.44758 0.179328
1.259724 0.431405 0.107889 1.251335 0.457556 0.095672
1.262122 0.432897 0.108237 1.253558 0.459633 0.095663
1.274351 0.237783 0.785093 1.271312 0.227815 0.788352
1.238405 0.366171 0.28011 1.235445 0.394208 0.267973
1.306192 0.450486 0.150484 1.293259 0.447394 0.180667
1.256329 0.430227 0.10742 1.246844 0.457983 0.09573
1.281239 0.476991 0.007482 1.274903 0.483132 0.017632
1.219986 0.162711 0.918653 1.228524 0.162926 0.914234
1.23764 0.36644 0.280981 1.234248 0.393937 0.269719
1.306784 0.451715 0.151154 1.294517 0.44869 0.179854
1.256371 0.430654 0.109219 1.244238 0.459082 0.102626
1.256072 0.430713 0.10836 1.244242 0.461024 0.098835
1.27954 0.477015 0.006623 1.272617 0.483765 0.017616
1.213779 0.162578 0.910193 1.223014 0.163572 0.905396
1.235335 0.366034 0.280669 1.232507 0.392244 0.269406
1.307136 0.453064 0.150901 1.294286 0.449923 0.180989
1.255566 0.430632 0.110638 1.240497 0.461976 0.107078
1.250486 0.428142 0.107603 1.236318 0.458708 0.102939
1.280932 0.478853 0.006597 1.273949 0.485214 0.018649
1.212531 0.163435 0.909445 1.222455 0.164544 0.904295
1.234705 0.366361 0.281643 1.232309 0.391639 0.270352
1.307149 0.453993 0.151292 1.294757 0.448759 0.182685
1.257505 0.431855 0.114049 1.239117 0.465583 0.114953
1.255181 0.430834 0.112252 1.237366 0.462264 0.114553
1.256031 0.431506 0.111914 1.238943 0.463495 0.111955
1.27896 0.47871 0.005667 1.271191 0.486821 0.016787
1.277981 0.47832 0.004774 1.270449 0.486053 0.015873
1.231684 0.365636 0.280766 1.230091 0.389789 0.269081
1.304712 0.453633 0.1505 1.293393 0.447688 0.180426
1.260345 0.43356 0.117908 1.247862 0.464619 0.109127
1.268437 0.438098 0.120918 1.25586 0.468087 0.113528
1.27827 0.479508 0.004452 1.27059 0.486906 0.01683
1.232496 0.366872 0.281941 1.231596 0.389973 0.269928
1.258214 0.432836 0.118736 1.247585 0.464026 0.10585
1.259332 0.433653 0.11852 1.247584 0.465253 0.107509
1.229598 0.366195 0.281151 1.230117 0.388736 0.26764
1.30127 0.453893 0.1488 1.288645 0.452344 0.17664
1.252112 0.430206 0.116958 1.24042 0.463228 0.104233
1.278742 0.481824 0.003776 1.271845 0.487865 0.016225
1.229049 0.366557 0.282184 1.229338 0.389328 0.268851
1.24889 0.428892 0.117247 1.235672 0.461044 0.108769
1.251221 0.430358 0.117616 1.238644 0.463739 0.106332
1.278896 0.482936 0.003416 1.27226 0.488557 0.015817
1.229469 0.367623 0.28306 1.230352 0.389859 0.269244
1.247156 0.428373 0.118231 1.23165 0.462698 0.112125
1.241988 0.425815 0.115051 1.227488 0.458973 0.108099
1.277534 0.482954 0.003285 1.271934 0.486981 0.015329
1.227123 0.367184 0.282689 1.228957 0.389312 0.267737
1.242109 0.426288 0.1169 1.226191 0.460373 0.111872
1.277462 0.483929 0.002866 1.271975 0.487983 0.014426
1.226628 0.367572 0.283766 1.228022 0.38931 0.269615
1.277229 0.484808 0.002404 1.271186 0.489982 0.01352
1.226585 0.368433 0.284284 1.228564 0.390152 0.269376
1.277465 0.48597 0.002065 1.271475 0.490975 0.013357
1.221983 0.366436 0.283948 1.222248 0.373466 0.27963
1.225334 0.368482 0.284767 1.228007 0.389138 0.269605
1.276733 0.486547 0.001472 1.270699 0.491566 0.012899
1.388075 0.385396 0.610999 1.376673 0.378823 0.624032
1.224614 0.36877 0.285671 1.226343 0.386587 0.273339
1.224936 0.369184 0.285007 1.227468 0.390578 0.269579
1.276878 0.487655 0.001109 1.27016 0.494006 0.012059
1.386608 0.386046 0.610443 1.375329 0.379599 0.623309
1.22446 0.369583 0.286104 1.226297 0.390935 0.271597
1.275306 0.487718 0.000298 1.269082 0.493322 0.011083
1.223047 0.369825 0.285536 1.225292 0.390571 0.270838
1.273954 0.487911 -0.000454 1.267501 0.493948 0.010189
1.222599 0.370238 0.286657 1.225685 0.392051 0.270314
1.27409 0.489011 -0.000818 1.267313 0.495505 0.009982
1.222352 0.37101 0.287017 1.224512 0.392935 0.271749
1.272668 0.489156 -0.001586 1.266501 0.494506 0.009554
1.221257 0.371128 0.287622 1.222543 0.394657 0.272545
1.272849 0.490283 -0.001939 1.266905 0.494653 0.010667
1.21992 0.371134 0.288032 1.22082 0.393492 0.274123
1.272532 0.491104 -0.00242 1.266707 0.495093 0.010641
1.218993 0.371594 0.287847 1.220099 0.39228 0.274614
1.271936 0.491572 -0.002348 1.266236 0.495426 0.010513
1.218896 0.372171 0.289255 1.218702 0.39216 0.278047
1.271713 0.49245 -0.002805 1.265896 0.496474 0.010105
1.218631 0.372937 0.289604 1.21946 0.390685 0.278389
1.270974 0.493007 -0.003394 1.264797 0.49793 0.008747
1.216006 0.372342 0.288967 1.219858 0.390284 0.273927
1.27125 0.494195 -0.003723 1.265132 0.49862 0.009402
1.214041 0.372313 0.287934 1.219009 0.388729 0.272381
1.270775 0.494738 -0.00362 1.2648 0.498866 0.009629
1.2106 0.371329 0.286618 1.21818 0.386089 0.268839
1.270059 0.495306 -0.004203 1.265096 0.497679 0.009393
1.210621 0.372222 0.287197 1.220131 0.385666 0.267802
1.269254 0.495641 -0.004185 1.265173 0.496639 0.009304
1.211229 0.373394 0.288257 1.223259 0.384572 0.267083
1.268551 0.496215 -0.004764 1.264639 0.496171 0.010661
1.21132 0.374325 0.288896 1.225332 0.383915 0.266221
1.267225 0.496219 -0.00488 1.262599 0.497304 0.010529
1.210884 0.375008 0.289104 1.224931 0.383777 0.266871
1.268478 0.498026 -0.004958 1.263682 0.499214 0.010898
1.21128 0.376088 0.289996 1.225652 0.383246 0.268314
1.197974 0.371766 0.271893 1.203469 0.362701 0.270472
1.201383 0.373653 0.273742 1.207564 0.365595 0.27087
1.268218 0.498704 -0.004801 1.263599 0.499513 0.011274
1.212467 0.377807 0.29061 1.227236 0.378778 0.272017
1.201389 0.374781 0.273394 1.208051 0.367934 0.269216
1.19993 0.374327 0.271325 1.207391 0.368816 0.265345
1.268295 0.499769 -0.005181 1.263347 0.501371 0.010241
1.211614 0.378295 0.29048 1.226046 0.37696 0.273668
1.202943 0.37691 0.273388 1.211272 0.370787 0.266704
1.202841 0.377611 0.270611 1.209833 0.371565 0.265527
1.205678 0.379241 0.27197 1.212126 0.372937 0.26772
1.202968 0.378171 0.26892 1.209558 0.371748 0.264559
1.204919 0.379372 0.269571 1.212206 0.373527 0.263968
1.267159 0.499891 -0.005247 1.262074 0.501655 0.010275
1.208812 0.3781 0.287823 1.220451 0.369994 0.278389
1.208334 0.378125 0.286509 1.217942 0.366413 0.28167
1.2075 0.377978 0.284907 1.215766 0.364474 0.282768
1.206823 0.377905 0.283437 1.21357 0.364283 0.283235
1.206648 0.381348 0.270583 1.213007 0.377757 0.26477
1.204992 0.380785 0.268376 1.210961 0.37748 0.262867
1.26628 0.500346 -0.00587 1.261192 0.502243 0.009363
1.21091 0.381288 0.285484 1.217799 0.371598 0.282798
1.202187 0.380534 0.265806 1.20767 0.378899 0.259876
1.265804 0.500886 -0.005768 1.260575 0.502605 0.010428
1.212799 0.383363 0.286657 1.219588 0.373584 0.284172
1.212791 0.383614 0.285726 1.219307 0.373147 0.283993
1.217458 0.386407 0.287643 1.226514 0.376838 0.282222
1.203887 0.3825 0.266791 1.209004 0.380983 0.261251
1.265172 0.501326 -0.005707 1.260232 0.502458 0.010801
1.224757 0.39116 0.293162 1.234794 0.384925 0.284509
1.199725 0.381074 0.264933 1.205402 0.380317 0.258229
1.200898 0.3819 0.264971 1.205644 0.380944 0.259559
1.265723 0.502696 -0.005965 1.26117 0.503409 0.010113
1.225788 0.392849 0.293622 1.238497 0.396206 0.275782
1.199908 0.382043 0.265615 1.205359 0.382334 0.25855
1.263937 0.502392 -0.006198 1.259741 0.502749 0.009355
1.227338 0.394542 0.295445 1.240552 0.400722 0.27526
1.199176 0.382802 0.264681 1.203569 0.383213 0.25887
1.266263 0.504911 -0.006004 1.261508 0.506061 0.009769
1.22736 0.395483 0.29604 1.240057 0.405429 0.274192
1.264713 0.504757 -0.006175 1.259773 0.505974 0.010126
1.225736 0.395863 0.294358 1.237542 0.410609 0.270601
1.26281 0.504372 -0.006438 1.258114 0.505221 0.009811
1.225367 0.396609 0.294636 1.237379 0.411327 0.270642
1.263253 0.505677 -0.006723 1.258318 0.506945 0.009434
1.225705 0.397711 0.295487 1.238303 0.411209 0.271525
1.262322 0.505919 -0.006737 1.256806 0.50842 0.008515
1.224609 0.398092 0.295177 1.237262 0.410762 0.271665
1.264011 0.50804 -0.006706 1.257513 0.512188 0.008192
1.223883 0.39866 0.295167 1.236156 0.411578 0.271973
1.262192 0.507702 -0.006946 1.256052 0.511457 0.007507
1.221406 0.398339 0.293736 1.233392 0.412444 0.270157
1.264427 0.510189 -0.006778 1.258769 0.513327 0.007389
1.221826 0.399485 0.294654 1.234724 0.414089 0.269643
1.264565 0.511302 -0.007143 1.259817 0.513329 0.006338
1.219892 0.399432 0.293659 1.233505 0.413926 0.267839
1.263757 0.511627 -0.007124 1.259599 0.512677 0.006545
1.219207 0.400015 0.293679 1.232882 0.414584 0.26774
1.261667 0.511267 -0.008053 1.259042 0.509556 0.00681
1.218788 0.400735 0.293916 1.232285 0.415561 0.268035
1.218746 0.401215 0.291991 1.223587 0.409732 0.280636
1.261711 0.512151 -0.00782 1.259287 0.509877 0.007711
1.218053 0.401291 0.293894 1.231532 0.416215 0.267976
1.218195 0.401615 0.293064 1.229024 0.415478 0.271007
1.26238 0.513453 -0.007428 1.260319 0.510319 0.008919
1.217589 0.402238 0.293148 1.22936 0.417537 0.269025
1.262705 0.514529 -0.007122 1.260863 0.510827 0.009842
1.217477 0.403117 0.293636 1.229512 0.420871 0.267628
1.262014 0.514928 -0.007075 1.259743 0.511549 0.010724
1.216508 0.403551 0.293423 1.229491 0.422625 0.265413
1.262233 0.515936 -0.006795 1.259702 0.513011 0.010824
1.214696 0.403542 0.292518 1.228683 0.422701 0.263225
1.262011 0.516814 -0.007252 1.25891 0.515132 0.009396
1.21399 0.40411 0.292519 1.228227 0.423704 0.262641
1.260618 0.516741 -0.007383 1.257578 0.514875 0.009493
1.213096 0.404578 0.292364 1.226923 0.424708 0.26264
1.261466 0.518176 -0.006943 1.258781 0.515951 0.009479
1.211675 0.404522 0.29272 1.224255 0.426056 0.26368
1.261269 0.518908 -0.00677 1.259077 0.516144 0.009132
1.211211 0.405215 0.292918 1.222236 0.428734 0.264481
1.261148 0.519855 -0.007202 1.259789 0.516145 0.008001
1.210553 0.405806 0.292956 1.220418 0.430425 0.265202
1.262327 0.521523 -0.006677 1.260905 0.51806 0.008117
1.209428 0.406148 0.292608 1.218804 0.429323 0.266361
1.261664 0.521942 -0.006621 1.259588 0.519346 0.008427
1.209019 0.40687 0.292852 1.218192 0.428451 0.267862
1.261338 0.522592 -0.006479 1.259669 0.51932 0.008771
1.206438 0.406187 0.292237 1.215957 0.428806 0.266215
1.260736 0.523053 -0.006408 1.258873 0.519951 0.009146
1.20573 0.406747 0.292231 1.215804 0.430023 0.265104
1.260202 0.52356 -0.00632 1.257938 0.520979 0.0094
1.205539 0.407584 0.292655 1.215825 0.431422 0.264895
1.260414 0.524579 -0.00604 1.258449 0.521561 0.009674
1.205944 0.408745 0.293577 1.215883 0.431758 0.266755
1.260196 0.525304 -0.00587 1.258257 0.522195 0.009979
1.204681 0.409004 0.293108 1.214317 0.430321 0.267736
1.260242 0.526211 -0.005632 1.258996 0.52221 0.009905
1.203173 0.40889 0.293378 1.211651 0.429291 0.270033
1.259519 0.526748 -0.00622 1.259032 0.521777 0.009037
1.203095 0.409792 0.293899 1.21197 0.429115 0.270769
1.216597 0.438249 0.221097 1.236737 0.40345 0.221354
1.214445 0.437208 0.21876 1.236199 0.404561 0.214849
1.215288 0.437915 0.218482 1.239157 0.40849 0.208741
1.215343 0.438162 0.217663 1.241066 0.411173 0.203116
1.259013 0.527276 -0.006124 1.258957 0.521726 0.009016
1.202781 0.410566 0.294223 1.211161 0.430045 0.271571
1.21679 0.438864 0.223443 1.232678 0.403041 0.230757
1.215468 0.438306 0.221666 1.232155 0.405755 0.225084
1.215353 0.439525 0.21644 1.242973 0.417856 0.194563
1.2586 0.527867 -0.006004 1.258306 0.522619 0.009261
1.202634 0.411432 0.294688 1.210843 0.431072 0.272122
1.21615 0.438993 0.22522 1.22443 0.403254 0.243404
1.215258 0.438686 0.223734 1.22534 0.405049 0.237609
1.214736 0.440518 0.214792 1.242506 0.427199 0.18544
1.224814 0.448398 0.213861 1.203036 0.443233 0.25124
1.216291 0.44439 0.203984 1.231659 0.424951 0.198204
1.258131 0.528421 -0.005898 1.257515 0.52349 0.009766
1.202134 0.412106 0.294856 1.211084 0.430353 0.272311
1.213784 0.438326 0.224928 1.217958 0.404319 0.247541
1.213952 0.441196 0.213886 1.24085 0.433241 0.181148
1.216008 0.445358 0.203421 1.230233 0.429859 0.195852
1.257651 0.528966 -0.005796 1.257026 0.523926 0.010204
1.201598 0.41276 0.294994 1.211212 0.4287 0.273165
1.214096 0.439446 0.225639 1.215844 0.406322 0.251033
1.21421 0.44228 0.214538 1.237385 0.440881 0.181614
1.256888 0.529314 -0.005766 1.25587 0.524947 0.00994
1.201302 0.413547 0.295335 1.21161 0.427829 0.273768
1.211512 0.438645 0.225188 1.208489 0.406252 0.256743
1.213262 0.442859 0.21352 1.236023 0.448614 0.174891
1.25673 0.530084 -0.00558 1.255962 0.525614 0.009443
1.200561 0.413853 0.296253 1.211739 0.42913 0.273057
1.209398 0.43833 0.224196 1.203846 0.408638 0.257115
1.213933 0.444193 0.214453 1.234304 0.452306 0.177303
1.220747 0.450376 0.210491 1.199278 0.47006 0.225013
1.256367 0.530712 -0.005447 1.2563 0.525521 0.008827
1.199361 0.414138 0.295828 1.210877 0.428611 0.272761
1.214749 0.445618 0.215486 1.229589 0.458602 0.182209
1.25696 0.532011 -0.005066 1.256677 0.527236 0.008922
1.19891 0.414839 0.296038 1.210999 0.428724 0.272683
1.215411 0.446954 0.216417 1.226035 0.465055 0.184826
1.257132 0.533017 -0.004793 1.257122 0.527972 0.008884
1.198478 0.415552 0.296265 1.210113 0.429025 0.273716
1.215188 0.447762 0.216747 1.222473 0.470405 0.186035
1.20618 0.485458 0.033569 1.210382 0.486434 0.01987
1.257534 0.534187 -0.00446 1.25834 0.528081 0.008964
1.197994 0.416235 0.296448 1.209408 0.42955 0.274264
1.207249 0.440791 0.224653 1.188516 0.427489 0.262467
1.214583 0.44834 0.216817 1.218974 0.475834 0.186034
1.255249 0.533308 -0.004196 1.25624 0.526903 0.009284
1.19768 0.417014 0.296775 1.208713 0.430094 0.275195
1.207497 0.441877 0.225322 1.183627 0.432376 0.26716
1.213 0.448325 0.216218 1.214743 0.479438 0.186072
1.203295 0.485009 0.033698 1.205661 0.492636 0.01247
1.254149 0.533416 -0.004256 1.255133 0.527269 0.008569
1.197361 0.417792 0.2971 1.208447 0.431057 0.275337
1.206987 0.44251 0.225456 1.182079 0.435872 0.266295
1.21237 0.448678 0.217129 1.210852 0.481306 0.190443
1.212861 0.49179 0.039966 1.215947 0.476312 0.060697
1.202497 0.485299 0.033674 1.20257 0.496689 0.011633
1.254194 0.534335 -0.004015 1.255417 0.527991 0.008449
1.196616 0.418329 0.29706 1.207717 0.431324 0.275458
1.206746 0.443514 0.224914 1.179577 0.447061 0.26031
1.212218 0.44953 0.217509 1.208085 0.482763 0.194047
1.208736 0.489813 0.038738 1.210963 0.475638 0.059413
1.199261 0.483912 0.032777 1.198301 0.496308 0.011667
1.254454 0.535408 -0.003717 1.256356 0.528167 0.008607
1.195424 0.41861 0.296636 1.207237 0.43131 0.274399
1.205638 0.443992 0.223761 1.178273 0.453338 0.25448
1.209521 0.448623 0.216997 1.202173 0.482989 0.197218
1.202433 0.486173 0.037351 1.203615 0.473226 0.058528
1.199932 0.485209 0.033279 1.199428 0.496189 0.013592
1.255324 0.536917 -0.003258 1.25679 0.530366 0.008878
1.195182 0.419432 0.297026 1.207274 0.431577 0.274838
1.205361 0.444971 0.223194 1.178733 0.45779 0.249876
1.202516 0.444874 0.214348 1.188355 0.479508 0.204229
1.207038 0.447843 0.216625 1.195098 0.483089 0.202712
1.202309 0.486931 0.037573 1.203553 0.473136 0.060205
1.246964 0.531694 -0.004609 1.248683 0.525495 0.005587
1.19453 0.420019 0.297065 1.206691 0.431594 0.275179
1.205969 0.446491 0.223252 1.182476 0.461824 0.243298
1.20496 0.44608 0.221678 1.184438 0.464499 0.234859
1.206438 0.447804 0.219269 1.188593 0.480196 0.216414
1.204064 0.446554 0.216758 1.187449 0.480648 0.210613
1.207004 0.49102 0.039557 1.208181 0.477057 0.062718
1.251991 0.53617 -0.003046 1.254348 0.529343 0.006466
1.19399 0.420898 0.296245 1.205601 0.430484 0.276288
1.206048 0.448508 0.219485 1.19052 0.477126 0.216554
1.201357 0.487809 0.038396 1.202685 0.475466 0.058038
1.254339 0.538744 -0.002191 1.256526 0.532387 0.006714
1.107041 0.203269 0.934187 1.114769 0.20817 0.930656
1.193364 0.4215 0.296305 1.205504 0.431091 0.275734
1.202383 0.489367 0.039042 1.204102 0.475576 0.06038
1.103772 0.203632 0.928132 1.110098 0.209722 0.925075
1.192991 0.422248 0.296583 1.205861 0.431151 0.275635
1.20296 0.490618 0.039524 1.205118 0.476098 0.061076
1.102362 0.204362 0.926655 1.107651 0.210003 0.924053
1.192162 0.422732 0.296469 1.206129 0.430798 0.27482
1.204949 0.448219 0.230613 1.211812 0.435437 0.231994
1.191454 0.423285 0.296458 1.205681 0.431757 0.274247
1.204326 0.450825 0.221966 1.211238 0.454789 0.208671
1.201701 0.491292 0.040241 1.203058 0.478018 0.061593
1.199336 0.490386 0.036177 1.197727 0.502792 0.016786
1.190755 0.423843 0.296455 1.204295 0.432513 0.274916
1.202218 0.450464 0.220972 1.20658 0.457931 0.208208
1.200279 0.491149 0.039984 1.201177 0.477725 0.062884
1.190739 0.425023 0.296085 1.203143 0.433913 0.275672
1.202635 0.451672 0.22176 1.205524 0.461116 0.209333
1.198996 0.4911 0.039778 1.20021 0.476637 0.063816
1.190086 0.425608 0.296122 1.202659 0.434704 0.275382
1.202073 0.452271 0.221856 1.203353 0.46392 0.209746
1.197488 0.490743 0.040127 1.198919 0.478699 0.058969
1.203205 0.495508 0.039037 1.201163 0.508352 0.019975
1.189423 0.426186 0.296149 1.203224 0.434033 0.27485
1.197841 0.491842 0.04053 1.199534 0.478575 0.060999
1.188922 0.42686 0.296317 1.203064 0.434676 0.274656
1.197625 0.492542 0.040721 1.199612 0.478618 0.061676
1.188409 0.427527 0.296475 1.201841 0.435264 0.2757
1.200312 0.495297 0.042 1.202482 0.481428 0.062391
1.188446 0.428741 0.296151 1.200609 0.435586 0.277415
1.195608 0.492674 0.041149 1.197786 0.479215 0.060706
1.202183 0.497928 0.041035 1.20251 0.509488 0.018078
1.188027 0.429465 0.296391 1.200352 0.437163 0.276892
1.196994 0.494512 0.041943 1.199399 0.480166 0.062597
1.187358 0.430039 0.296414 1.200088 0.436761 0.277133
1.201293 0.456126 0.230403 1.194719 0.467001 0.229966
1.205995 0.459307 0.232924 1.199747 0.472101 0.230346
1.198274 0.496282 0.042701 1.200722 0.481881 0.06338
1.186905 0.430743 0.296624 1.199864 0.436798 0.277551
1.193707 0.493882 0.041248 1.195986 0.479585 0.062209
1.186533 0.431496 0.296905 1.199763 0.437099 0.277848
1.19599 0.496226 0.043031 1.197257 0.481498 0.067425
1.185998 0.432367 0.296084 1.198601 0.437111 0.278316
1.19281 0.494807 0.042096 1.193467 0.48032 0.067664
1.185276 0.432908 0.29606 1.198339 0.43765 0.27778
1.198548 0.501086 0.038739 1.184979 0.52398 0.030808
1.199468 0.501894 0.038436 1.186088 0.523956 0.031577
1.184773 0.433581 0.296227 1.198066 0.438358 0.277672
1.194372 0.497647 0.043241 1.189409 0.490921 0.068946
1.193943 0.498339 0.038582 1.180131 0.520855 0.032031
1.184909 0.434859 0.29599 1.197105 0.438955 0.279143
1.192258 0.496984 0.04271 1.183126 0.497056 0.066481
1.1957 0.500185 0.040795 1.180223 0.526378 0.031589
1.198415 0.502291 0.041169 1.184197 0.525432 0.034445
1.184803 0.435778 0.296505 1.196781 0.441154 0.279022
1.19559 0.500684 0.042318 1.180009 0.524679 0.037583
1.184198 0.436391 0.296584 1.197371 0.441115 0.278206
1.18372 0.437293 0.295811 1.197152 0.44066 0.27807
1.183379 0.438069 0.29612 1.198269 0.441604 0.27661
1.183518 0.439354 0.295887 1.197868 0.441166 0.278198
1.183178 0.440133 0.296198 1.198301 0.441451 0.277999
1.181928 0.440549 0.294749 1.195819 0.441056 0.27852
1.181987 0.441577 0.295408 1.197492 0.441645 0.277674
1.181798 0.442659 0.294889 1.196268 0.442914 0.278188
1.181328 0.443356 0.295086 1.196882 0.443348 0.277361
1.181193 0.444472 0.294613 1.196287 0.444837 0.277128
1.181303 0.445539 0.295319 1.197261 0.44634 0.276556
1.181583 0.446922 0.29521 1.197526 0.447187 0.276838
1.181816 0.448277 0.295058 1.197094 0.446139 0.279191
1.181253 0.448919 0.295176 1.197288 0.446768 0.278481
1.181103 0.450029 0.294689 1.196666 0.446526 0.279522
1.181351 0.451398 0.294551 1.196737 0.447061 0.280202
1.180999 0.452378 0.293887 1.197497 0.449332 0.277307
1.181171 0.4537 0.293682 1.199264 0.450521 0.275374
1.181235 0.454952 0.293381 1.199434 0.450548 0.275864
1.180816 0.45569 0.293625 1.199379 0.45173 0.275393
1.180665 0.456803 0.293137 1.199172 0.45323 0.274673
1.180665 0.458016 0.292781 1.199812 0.452886 0.27476
1.18083 0.459339 0.292568 1.200005 0.454011 0.274665
1.180448 0.460299 0.291877 1.199222 0.454425 0.274852
1.181185 0.462008 0.292162 1.200261 0.455954 0.274932
1.180978 0.463086 0.291624 1.199184 0.457273 0.275209
1.180014 0.463654 0.290427 1.197569 0.458022 0.274622
1.180078 0.464914 0.290124 1.196398 0.459593 0.275499
1.179199 0.465725 0.288038 1.192583 0.458054 0.278614
1.179612 0.466195 0.287432 1.192317 0.45914 0.278291
1.179312 0.467206 0.286814 1.193002 0.459169 0.27732
1.168127 0.502028 0.060615 1.172102 0.498686 0.057369
1.180145 0.468993 0.287176 1.194131 0.461023 0.277301
1.148126 0.47385 0.122359 1.16776 0.446664 0.123176
1.148972 0.474616 0.122131 1.170034 0.447902 0.119895
1.149058 0.474961 0.120743 1.171549 0.44966 0.11423
1.150285 0.476009 0.12073 1.172863 0.451742 0.112731
1.166912 0.502486 0.057762 1.171282 0.499363 0.053196
1.181257 0.471163 0.286811 1.194767 0.463131 0.277534
1.180008 0.470491 0.284772 1.193322 0.462121 0.275978
1.179559 0.47037 0.283427 1.191754 0.461578 0.276259
1.192739 0.489556 0.242657 1.200793 0.477297 0.243465
1.177953 0.480472 0.224385 1.189276 0.473963 0.215393
1.155786 0.479991 0.12939 1.17225 0.451729 0.137013
1.155723 0.480087 0.128619 1.174095 0.451336 0.133631
1.148021 0.474521 0.123394 1.167196 0.445834 0.126973
1.18109 0.472642 0.284379 1.193542 0.463028 0.277593
1.181164 0.47288 0.283481 1.193264 0.462656 0.277588
1.19238 0.491383 0.237476 1.204385 0.477963 0.234192
1.188097 0.488511 0.233367 1.202265 0.476115 0.226216
1.17374 0.478637 0.220884 1.187451 0.474559 0.206375
1.151578 0.477631 0.128034 1.167218 0.447124 0.13993
1.19294 0.49158 0.244805 1.203583 0.4752 0.246109
1.193224 0.491958 0.244106 1.203964 0.475756 0.245129
1.194093 0.492751 0.243852 1.205237 0.4769 0.244022
1.194544 0.493249 0.24328 1.206097 0.47839 0.241986
1.194234 0.493204 0.242132 1.205422 0.478711 0.24098
1.19368 0.492985 0.240802 1.204206 0.478501 0.240524
1.193889 0.493309 0.240049 1.204719 0.478816 0.239382
1.15089 0.477737 0.129473 1.16151 0.451167 0.144893
1.155757 0.481498 0.131617 1.168002 0.453296 0.146394
1.181952 0.476788 0.278635 1.195124 0.464435 0.273235
1.181882 0.476923 0.277621 1.195118 0.464251 0.272402
1.190243 0.48946 0.249701 1.203107 0.472177 0.248941
1.190988 0.490166 0.249358 1.20364 0.472914 0.248849
1.191388 0.490627 0.248747 1.20381 0.473275 0.248633
1.192026 0.491257 0.248319 1.204096 0.474189 0.248409
1.192108 0.491491 0.247462 1.204328 0.474123 0.24764
1.176653 0.4827 0.22408 1.194728 0.479585 0.202865
1.15054 0.478237 0.130383 1.159137 0.453126 0.147386
1.182909 0.47977 0.273358 1.196779 0.467708 0.266863
1.189524 0.489276 0.253386 1.200311 0.473175 0.254224
1.189551 0.489471 0.252482 1.200627 0.472911 0.253377
1.188893 0.48918 0.251044 1.199995 0.472757 0.251789
1.175083 0.482737 0.222545 1.191881 0.484461 0.198374
1.151816 0.480093 0.131529 1.158861 0.456403 0.149412
1.147571 0.479538 0.115302 1.166382 0.472935 0.090892
1.167027 0.507725 0.055361 1.17138 0.503116 0.053573
1.183776 0.481959 0.271816 1.19685 0.468139 0.267789
1.185587 0.483597 0.271415 1.197895 0.469828 0.268266
1.18562 0.4838 0.270493 1.197977 0.470505 0.266877
1.17908 0.480601 0.257665 1.191582 0.466164 0.254851
1.178519 0.480379 0.256287 1.191521 0.46543 0.253304
1.180259 0.481788 0.256765 1.194394 0.466172 0.252961
1.181648 0.482949 0.256956 1.19612 0.46703 0.252997
1.179979 0.482116 0.253772 1.193043 0.464899 0.252723
1.184743 0.485675 0.256652 1.197527 0.467786 0.256557
1.184745 0.485852 0.255726 1.197276 0.468466 0.255508
1.185745 0.48674 0.255594 1.197496 0.469815 0.255953
1.186259 0.487282 0.255075 1.197844 0.470554 0.255473
1.172799 0.482089 0.221351 1.188416 0.485949 0.196731
1.149754 0.479316 0.131422 1.15515 0.456683 0.150735
1.147206 0.480289 0.114749 1.16456 0.476506 0.08915
1.170737 0.481758 0.219452 1.185374 0.485412 0.196307
1.147385 0.478306 0.131125 1.150447 0.457617 0.151882
1.146696 0.480794 0.114826 1.160221 0.479882 0.092195
1.169826 0.482089 0.219279 1.183733 0.486229 0.196662
1.148342 0.479928 0.132088 1.149996 0.461004 0.153017
1.146799 0.481899 0.114539 1.158366 0.484165 0.091086
1.168926 0.482427 0.219115 1.180995 0.488014 0.197571
1.146723 0.479477 0.132238 1.14546 0.462564 0.15546
1.147051 0.482984 0.115048 1.156999 0.487475 0.091489
1.168462 0.483243 0.21841 1.178957 0.4892 0.198572
1.146171 0.479966 0.132294 1.142979 0.465305 0.155916
1.147265 0.484177 0.114823 1.155589 0.491199 0.090678
1.167974 0.483879 0.218553 1.178713 0.490451 0.197799
1.145531 0.480388 0.132297 1.140151 0.46839 0.156215
1.147364 0.48515 0.115246 1.154449 0.493874 0.091003
1.167932 0.484841 0.219031 1.178215 0.492219 0.19811
1.14512 0.480983 0.132438 1.138297 0.470535 0.156802
1.147398 0.486075 0.115634 1.154149 0.495283 0.091331
1.167504 0.485523 0.21922 1.177876 0.492474 0.198607
1.144738 0.481601 0.132598 1.136817 0.472466 0.157124
1.148666 0.48795 0.116723 1.153984 0.498214 0.093515
1.166998 0.486306 0.218483 1.178008 0.490991 0.199202
1.144284 0.482163 0.132713 1.134337 0.475143 0.157914
1.147316 0.487684 0.117043 1.149995 0.499518 0.096402
1.167104 0.487382 0.219073 1.179088 0.49093 0.199629
1.143843 0.482736 0.132837 1.131552 0.478396 0.158512
1.146572 0.488015 0.116988 1.146972 0.503034 0.096026
1.166519 0.487948 0.219144 1.178586 0.490645 0.200445
1.143624 0.483613 0.132358 1.129732 0.48249 0.156652
1.145786 0.488313 0.11691 1.14437 0.505295 0.096449
1.157804 0.508729 0.06249 1.162302 0.500613 0.066857
1.15481 0.506584 0.059838 1.160128 0.497618 0.06392
1.165524 0.488366 0.218038 1.177179 0.490563 0.200354
1.143248 0.484236 0.132521 1.126862 0.485535 0.157824
1.147395 0.490335 0.118926 1.143976 0.508799 0.099984
1.156022 0.508077 0.062652 1.161599 0.499216 0.065954
1.155353 0.507662 0.061693 1.161057 0.49784 0.066432
1.153073 0.505962 0.060015 1.158557 0.496521 0.064588
1.164593 0.488673 0.217848 1.176041 0.491789 0.199549
1.143081 0.485153 0.132075 1.125353 0.488783 0.156655
1.147884 0.491626 0.119581 1.141319 0.514403 0.100249
1.153938 0.507182 0.062673 1.16008 0.497393 0.066382
1.153934 0.507296 0.062014 1.160363 0.497192 0.065659
1.163722 0.489022 0.217703 1.174676 0.492248 0.199966
1.163352 0.488901 0.216558 1.173353 0.491012 0.201156
1.14295 0.486098 0.131651 1.12406 0.492835 0.154203
1.145715 0.490721 0.119428 1.137277 0.514651 0.101797
1.153022 0.507217 0.063219 1.160744 0.495952 0.066067
1.153816 0.50797 0.062922 1.160944 0.497112 0.066377
1.163339 0.489891 0.217058 1.173979 0.492277 0.200547
1.163722 0.490331 0.216479 1.171431 0.49211 0.204438
1.142313 0.48665 0.130919 1.12099 0.497096 0.152742
1.143514 0.489788 0.119251 1.131889 0.51575 0.104384
1.146702 0.501635 0.068507 1.154033 0.492296 0.068792
1.147145 0.502106 0.068055 1.1546 0.492736 0.068134
1.147566 0.50256 0.067594 1.15506 0.493255 0.067483
1.148171 0.503161 0.067217 1.155784 0.494065 0.0665
1.148399 0.503461 0.066665 1.156262 0.494454 0.065259
1.148556 0.503704 0.066079 1.156879 0.494147 0.064632
1.14917 0.504313 0.065706 1.157955 0.494404 0.063871
1.148839 0.504165 0.064895 1.158125 0.493554 0.063191
1.149456 0.504776 0.064523 1.158937 0.493382 0.063761
1.151083 0.506197 0.064613 1.160356 0.494493 0.064848
1.152379 0.507353 0.064548 1.161304 0.495707 0.065447
1.152527 0.507589 0.063957 1.160604 0.496509 0.06573
1.163398 0.490937 0.217613 1.175069 0.492305 0.200764
1.141433 0.487012 0.130041 1.118105 0.500495 0.151262
1.142126 0.489357 0.120262 1.129646 0.513857 0.108853
1.146407 0.501576 0.072654 1.153216 0.494087 0.070948
1.147112 0.502258 0.072327 1.154492 0.493841 0.070975
1.147265 0.502498 0.071735 1.154866 0.493725 0.070519
1.14749 0.502795 0.071178 1.155453 0.493972 0.069285
1.147478 0.502903 0.070509 1.155357 0.49411 0.068743
1.146955 0.502602 0.069598 1.154426 0.493601 0.069045
1.162648 0.491528 0.216691 1.174838 0.492339 0.199691
1.141027 0.48774 0.129451 1.116518 0.505126 0.147569
1.141506 0.488243 0.129007 1.117952 0.507285 0.143437
1.144333 0.491739 0.123383 1.128589 0.516945 0.116603
1.161794 0.491886 0.216557 1.174536 0.492915 0.19863
1.141175 0.489028 0.128462 1.117582 0.50878 0.141984
1.141728 0.48959 0.128063 1.117648 0.511093 0.14014
1.142152 0.49005 0.127584 1.1197 0.512054 0.136311
1.142285 0.490282 0.126932 1.120037 0.513673 0.133514
1.14249 0.490571 0.126323 1.121481 0.514272 0.130423
1.142282 0.490536 0.125469 1.121077 0.515049 0.128831
1.142886 0.491137 0.125098 1.121985 0.516162 0.127266
1.144486 0.49252 0.125316 1.12425 0.518692 0.124835
1.159313 0.491162 0.214332 1.171412 0.491631 0.197798
1.159404 0.492231 0.214909 1.169891 0.494842 0.198377
1.159935 0.493788 0.214954 1.168049 0.497935 0.199993
1.158772 0.493906 0.214587 1.166025 0.498982 0.199835
1.158598 0.494778 0.214964 1.166719 0.499707 0.19922
1.158221 0.495496 0.21519 1.169255 0.498275 0.197787
1.157166 0.495838 0.214037 1.169752 0.497044 0.19616
1.156633 0.496433 0.214143 1.169201 0.497729 0.196218
1.155216 0.496489 0.212717 1.167203 0.497275 0.196064
1.155554 0.49776 0.213482 1.167772 0.498329 0.196765
1.155307 0.49872 0.212941 1.168663 0.497665 0.196376
1.154 0.498853 0.211599 1.167641 0.495958 0.196547
1.154396 0.500174 0.212407 1.167996 0.497047 0.19768
1.153635 0.50073 0.211478 1.166687 0.497826 0.197239
1.152875 0.501284 0.21055 1.164784 0.49882 0.197357
1.151101 0.500023 0.208353 1.161278 0.49795 0.19702
1.152621 0.502235 0.210005 1.163429 0.501074 0.196901
1.152836 0.503421 0.210675 1.163694 0.502666 0.197102
1.151886 0.50382 0.209604 1.162212 0.503558 0.196204
1.131789 0.49455 0.152306 1.138636 0.491102 0.146209
1.151207 0.504431 0.208738 1.160593 0.503723 0.197045
1.150996 0.50528 0.209085 1.160444 0.504764 0.197126
1.150694 0.506191 0.208504 1.159622 0.505505 0.197404
1.149586 0.506453 0.207316 1.158297 0.506564 0.195645
1.150114 0.507898 0.20822 1.159658 0.507751 0.195737
1.148606 0.507832 0.206729 1.158562 0.506677 0.194768
1.147996 0.50849 0.205917 1.157692 0.506906 0.194755
1.148777 0.510146 0.207011 1.158916 0.508709 0.195123
1.147672 0.5104 0.205826 1.157074 0.50889 0.194989
1.147387 0.511191 0.206115 1.156557 0.510669 0.194534
1.147316 0.512286 0.20571 1.15564 0.51271 0.194212
1.146245 0.512559 0.20455 1.154521 0.511909 0.194276
1.146773 0.514022 0.205453 1.156866 0.511192 0.19517
1.14627 0.514762 0.204721 1.157604 0.510454 0.194412
1.145833 0.515555 0.20404 1.157047 0.51051 0.194707
1.145642 0.515521 0.203041 1.156005 0.509918 0.195435
1.145617 0.516654 0.20267 1.155914 0.510951 0.195275
1.144722 0.517061 0.201646 1.154269 0.511929 0.194626
1.143391 0.517222 0.199447 1.15162 0.513308 0.19282
1.144288 0.522708 0.197857 1.15299 0.517656 0.191902
1.144006 0.52605 0.195739 1.155072 0.520017 0.187738
1.14382 0.527162 0.1944 1.155867 0.519133 0.187385
1.142142 0.525838 0.192322 1.153703 0.518197 0.185501
1.142479 0.527279 0.192216 1.154653 0.519874 0.184302
1.142434 0.527353 0.19134 1.155534 0.519761 0.182363
1.142598 0.528647 0.191106 1.15687 0.518919 0.183061
1.142508 0.528682 0.190199 1.156294 0.518848 0.18293
1.140877 0.527387 0.188172 1.153786 0.51836 0.181138
1.141708 0.529253 0.188423 1.155306 0.520045 0.180679
1.140716 0.528506 0.186865 1.153076 0.519975 0.180004
1.141551 0.530378 0.187118 1.153942 0.52212 0.179908
1.14196 0.530843 0.186576 1.153882 0.522141 0.180534
1.142626 0.532573 0.186703 1.153838 0.524581 0.18081
1.141606 0.531795 0.185131 1.152786 0.523704 0.179392
1.13968 0.530226 0.182913 1.150185 0.522259 0.177952
1.140523 0.53107 0.182687 1.150546 0.523443 0.177974
1.141819 0.533347 0.183262 1.153429 0.524126 0.178298
1.141626 0.533287 0.182291 1.152971 0.524017 0.17775
1.141263 0.534223 0.180847 1.152235 0.526283 0.175211
1.141314 0.534376 0.180054 1.151483 0.526448 0.175522
1.141215 0.534396 0.179156 1.150861 0.527042 0.174645
1.139985 0.534459 0.177931 1.149962 0.52761 0.172343
1.139644 0.534265 0.176865 1.14961 0.52735 0.171361
1.139401 0.534157 0.175871 1.149418 0.527133 0.170422
1.14094 0.536655 0.1766 1.151194 0.529222 0.171345
1.140401 0.536284 0.175398 1.150501 0.528884 0.17031
1.140104 0.536127 0.174368 1.150114 0.528713 0.169416
1.141402 0.538417 0.174921 1.152308 0.529661 0.170408
1.140548 0.537765 0.173503 1.151253 0.528539 0.169865
1.140622 0.537934 0.172734 1.150807 0.52882 0.169696
1.141063 0.538428 0.172221 1.15125 0.529561 0.16886
1.140757 0.53826 0.17119 1.15096 0.529325 0.167887
1.140555 0.538185 0.170234 1.150916 0.529085 0.166907
1.141077 0.53989 0.169422 1.151765 0.530028 0.16663
1.141506 0.540476 0.168086 1.151868 0.531246 0.16494
1.141457 0.540534 0.167239 1.151641 0.531571 0.163999
1.141453 0.540633 0.166424 1.150818 0.532185 0.163709
1.140054 0.53949 0.164662 1.14914 0.53147 0.161793
1.139084 0.538727 0.163196 1.147839 0.531368 0.159943
1.140798 0.541389 0.164002 1.15061 0.533336 0.160125
1.141278 0.541917 0.163518 1.151061 0.533693 0.159903
1.140828 0.541616 0.162407 1.150835 0.53292 0.159079
0.974203 0.419481 0.426418 0.962623 0.421437 0.431549
0.973814 0.419173 0.424452 0.96017 0.42003 0.431264
0.974036 0.420491 0.42595 0.958704 0.42259 0.432995
0.973324 0.419864 0.423379 0.958401 0.419873 0.431315
0.973287 0.420927 0.424387 0.955637 0.421315 0.433558
0.972659 0.421479 0.423054 0.954143 0.421334 0.432967
0.971243 0.421245 0.420237 0.952405 0.419883 0.430966
0.970679 0.422952 0.420098 0.953714 0.420881 0.430198
0.969351 0.422788 0.417444 0.952156 0.420556 0.427759
0.969044 0.423581 0.417937 0.951237 0.421783 0.42833
0.967551 0.423238 0.414969 0.949267 0.421267 0.425714
0.96742 0.424268 0.414571 0.948559 0.422791 0.425362
0.967286 0.425296 0.41417 0.949857 0.423467 0.424397
0.967088 0.4262 0.414866 0.949997 0.424152 0.425018
0.964976 0.425197 0.410726 0.947212 0.423151 0.42124
0.964978 0.426359 0.410581 0.947959 0.424163 0.420789
0.964606 0.427082 0.410944 0.947063 0.425003 0.421351
0.964076 0.427694 0.409792 0.945931 0.426049 0.420284
0.962968 0.4277 0.407548 0.945059 0.426043 0.417928
0.962272 0.428131 0.406085 0.94457 0.426309 0.416454
0.961577 0.42851 0.40583 0.94339 0.426533 0.416526
0.960819 0.428868 0.404247 0.94312 0.426618 0.414843
0.960343 0.429521 0.403199 0.943292 0.427497 0.413334
0.960399 0.430691 0.404365 0.942403 0.429256 0.414654
0.958613 0.429946 0.400831 0.940665 0.427978 0.411399
0.958203 0.430659 0.399907 0.940732 0.427852 0.410703
0.957236 0.430733 0.399126 0.940255 0.428071 0.409568
0.95806 0.432771 0.400546 0.940132 0.431765 0.410555
0.956793 0.432557 0.397996 0.938952 0.430627 0.408491
0.955978 0.432824 0.396304 0.93871 0.430474 0.406743
0.955936 0.433894 0.397276 0.937509 0.432432 0.407801
0.95495 0.433968 0.395256 0.935573 0.432212 0.406456
0.953765 0.433818 0.392861 0.934799 0.431424 0.404219
0.953693 0.434855 0.393772 0.934544 0.432839 0.404992
0.953256 0.435521 0.392798 0.933171 0.434089 0.404178
0.952435 0.435759 0.391091 0.93347 0.433409 0.402423
0.951564 0.43591 0.390479 0.933338 0.433364 0.401521
0.951183 0.43663 0.38961 0.93265 0.434304 0.400691
0.950622 0.437146 0.388398 0.932118 0.434819 0.399473
0.95027 0.437895 0.387586 0.932215 0.435831 0.398277
0.949996 0.438709 0.388108 0.931982 0.436951 0.398582
0.948641 0.439462 0.38524 0.932222 0.437556 0.394979
0.947719 0.440679 0.384381 0.932299 0.438648 0.393663
0.946255 0.440141 0.381442 0.930925 0.439095 0.390093
0.94543 0.440329 0.379726 0.930631 0.438593 0.388519
0.944024 0.442096 0.377794 0.930324 0.440807 0.38574
0.942628 0.442726 0.376015 0.929913 0.440865 0.383788
0.941746 0.442824 0.374188 0.928958 0.441539 0.381652
0.939337 0.444487 0.370186 0.927599 0.443594 0.37686
0.934945 0.445951 0.363253 0.923312 0.444457 0.370245
0.934447 0.446464 0.362161 0.923814 0.444452 0.368968
1.072537 0.632235 0.397012 1.077826 0.634247 0.391251
0.925938 0.451495 0.348469 0.914291 0.449852 0.355581
0.925498 0.452066 0.34862 0.914161 0.450216 0.355699
1.073715 0.636673 0.399293 1.079316 0.638318 0.393642
0.924897 0.452402 0.347327 0.913034 0.451112 0.354311
1.06821 0.634472 0.407356 1.062823 0.631953 0.413513
1.068429 0.636221 0.407379 1.063645 0.633839 0.412989
0.922342 0.453544 0.342989 0.910635 0.451763 0.350226
1.06857 0.64242 0.410297 1.063318 0.639902 0.416364
1.068103 0.643336 0.410647 1.063105 0.640536 0.41679
1.068349 0.645186 0.412004 1.063446 0.64237 0.418093
1.068416 0.646808 0.413112 1.06363 0.644135 0.418981
0.918631 0.456432 0.337135 0.906479 0.454844 0.344476
0.918421 0.457252 0.336601 0.906415 0.455263 0.34415
1.069097 0.65234 0.41714 1.064416 0.649537 0.423046
0.917013 0.457603 0.334726 0.903916 0.456666 0.342101
1.068596 0.653231 0.417455 1.064251 0.650237 0.423302
0.916522 0.458037 0.333644 0.903105 0.45612 0.341869
0.916169 0.458705 0.333945 0.903654 0.45722 0.341396
1.068549 0.656233 0.418135 1.064198 0.653235 0.423997
1.077544 0.667476 0.413708 1.083572 0.668164 0.408688
0.915888 0.459422 0.333272 0.902915 0.45813 0.340826
1.068021 0.657092 0.418414 1.062401 0.654358 0.424915
1.080867 0.673437 0.418008 1.089733 0.673268 0.411758
1.065872 0.655715 0.415065 1.06022 0.653195 0.421397
1.08134 0.675604 0.418363 1.092804 0.675532 0.410137
0.915318 0.460842 0.331912 0.903111 0.459626 0.33903
1.081919 0.677919 0.418864 1.094388 0.677339 0.410401
1.079995 0.678467 0.416931 1.091723 0.677378 0.409515
0.912404 0.460167 0.326963 0.899702 0.458608 0.334576
1.079168 0.678884 0.415491 1.088717 0.678664 0.408799
0.911218 0.45967 0.325626 0.898746 0.457949 0.333224
0.911305 0.460882 0.325674 0.898555 0.4585 0.333891
1.078457 0.681061 0.415233 1.085506 0.681576 0.409632
0.910877 0.461376 0.324715 0.897798 0.459948 0.332427
1.077961 0.681921 0.414249 1.084491 0.681967 0.409481
1.076571 0.681555 0.41203 1.082842 0.6821 0.406953
0.910386 0.462932 0.324613 0.896452 0.461796 0.332544
0.910786 0.464589 0.325272 0.896438 0.462845 0.333857
1.060441 0.664304 0.421597 1.055579 0.661736 0.427348
1.061445 0.667295 0.424127 1.056219 0.664578 0.430263
0.907783 0.462585 0.320246 0.893763 0.460716 0.328748
1.061381 0.66873 0.423757 1.05656 0.665632 0.429989
0.907729 0.463594 0.320018 0.893366 0.462183 0.328368
1.06055 0.669097 0.422263 1.055708 0.666107 0.428418
0.907067 0.463736 0.3186 0.89321 0.46151 0.327291
0.906081 0.464564 0.317518 0.892507 0.46355 0.325172
0.905269 0.464478 0.315804 0.89222 0.462381 0.323992
0.904821 0.464913 0.314805 0.892179 0.46226 0.323202
0.904423 0.465495 0.314993 0.891163 0.463047 0.323542
0.903493 0.465223 0.313044 0.889754 0.462942 0.321721
0.903281 0.465995 0.312509 0.889826 0.464596 0.320394
0.902009 0.468531 0.310618 0.890232 0.466321 0.318262
0.900159 0.469107 0.307703 0.888934 0.467084 0.31493
0.897135 0.473446 0.304035 0.887486 0.472156 0.309902
-0.112104 -0.044869 0.882967 -0.101567 -0.046837 0.886868
-0.111805 -0.044016 0.883081 -0.100744 -0.04558 0.887268
-0.113588 -0.037078 0.88344 -0.103294 -0.036972 0.887648
-0.113032 -0.036106 0.882924 -0.103242 -0.037575 0.886639
-0.113476 -0.034004 0.883434 -0.105238 -0.034745 0.886652
-0.113695 -0.028769 0.88366 -0.103685 -0.026246 0.88817
0.051098 -0.112576 0.907203 0.043776 -0.096931 0.909411
-0.114025 -0.025044 0.882454 -0.101262 -0.024814 0.887697
0.049892 -0.114869 0.918087 0.042386 -0.099969 0.920068
0.048914 -0.11694 0.928119 0.041009 -0.102735 0.929836
-0.114464 -0.022926 0.88295 -0.102516 -0.023481 0.887732
0.047747 -0.119234 0.939082 0.039762 -0.104781 0.940848
-0.1148 -0.021505 0.882341 -0.102888 -0.022442 0.887052
0.047961 -0.120055 0.944184 0.040759 -0.10501 0.946282
-0.114793 -0.019947 0.880895 -0.104586 -0.021203 0.884864
0.04802 -0.119509 0.945691 0.040046 -0.105176 0.947424
-0.114884 -0.01924 0.881965 -0.104688 -0.020883 0.885863
0.048715 -0.119818 0.948771 0.039775 -0.105706 0.950233
-0.114742 -0.018438 0.882465 -0.104227 -0.019354 0.88661
0.088486 -0.2454 1.257314 0.082279 -0.275431 1.24786
0.089168 -0.247173 1.261421 0.084886 -0.278294 1.251933
0.05357 -0.117735 0.945909 0.04564 -0.102369 0.947925
0.087023 -0.241948 1.253568 0.062867 -0.248931 1.247981
0.088413 -0.242347 1.252848 0.071942 -0.257608 1.246081
0.090614 -0.247361 1.264135 0.089616 -0.282304 1.254057
0.091705 -0.248365 1.265529 0.093383 -0.286013 1.255055
0.092615 -0.249734 1.2682 0.090848 -0.283199 1.258405
0.085965 -0.240764 1.25571 0.059319 -0.240273 1.251848
0.094088 -0.249903 1.270856 0.094329 -0.283805 1.261239
0.095784 -0.249715 1.268056 0.100432 -0.285261 1.258579
-0.115625 -0.014183 0.883459 -0.103875 -0.015285 0.888089
0.050462 -0.123375 0.972526 0.040911 -0.107528 0.974308
0.084947 -0.239497 1.257576 0.057777 -0.236288 1.25438
0.097889 -0.248618 1.266262 0.098763 -0.282647 1.256696
0.099785 -0.247998 1.261955 0.09784 -0.280829 1.252323
0.050161 -0.123224 0.975771 0.04067 -0.108431 0.977298
0.085445 -0.238403 1.257914 0.05755 -0.234615 1.254778
0.102019 -0.246612 1.259142 0.102381 -0.283018 1.248827
0.102759 -0.248359 1.263145 0.103286 -0.286028 1.252476
0.104476 -0.248078 1.260037 0.102236 -0.28231 1.249955
0.085906 -0.237378 1.258504 0.05943 -0.233624 1.25558
0.106604 -0.246894 1.257928 0.109524 -0.281438 1.248471
0.107485 -0.248369 1.260976 0.112512 -0.284172 1.251423
0.051871 -0.123594 0.98114 0.042386 -0.108212 0.982825
0.085038 -0.235821 1.259366 0.05862 -0.231567 1.25657
0.108571 -0.249421 1.266711 0.106993 -0.284351 1.25654
0.109786 -0.250208 1.267337 0.107391 -0.286625 1.25662
0.111368 -0.250194 1.265157 0.1113 -0.287274 1.254541
0.085633 -0.234547 1.259063 0.058728 -0.229532 1.25641
0.113289 -0.249458 1.264634 0.112833 -0.284841 1.254468
0.114324 -0.250646 1.26666 0.114209 -0.284294 1.257019
-0.116406 -0.008326 0.882771 -0.10464 -0.009005 0.887491
0.064282 -0.111939 0.937202 0.057636 -0.095945 0.939661
0.086123 -0.233466 1.259468 0.059617 -0.22894 1.256747
0.115806 -0.250903 1.269611 0.120631 -0.28639 1.260087
0.116859 -0.252074 1.271572 0.119918 -0.287468 1.261831
0.067373 -0.109564 0.929314 0.061365 -0.091956 0.932306
0.08527 -0.231873 1.260218 0.058095 -0.227403 1.257361
0.117685 -0.253862 1.279894 0.119457 -0.288233 1.270296
0.119618 -0.253039 1.274867 0.128206 -0.290012 1.265352
0.062865 -0.115805 0.956875 0.053509 -0.096986 0.959445
0.085791 -0.230734 1.260416 0.058839 -0.225843 1.257714
0.121372 -0.252718 1.275808 0.141302 -0.285469 1.268892
0.065037 -0.114484 0.953341 0.055931 -0.097309 0.95557
0.086022 -0.230123 1.262562 0.058964 -0.225244 1.259848
0.122158 -0.250999 1.274001 0.147049 -0.271674 1.27115
0.065388 -0.115242 0.958388 0.056575 -0.099007 0.960456
0.085294 -0.228294 1.262468 0.058731 -0.224063 1.259631
0.124056 -0.250342 1.273769 0.152516 -0.265344 1.272938
0.071621 -0.109241 0.935465 0.062817 -0.093258 0.937479
0.08583 -0.227126 1.262579 0.058372 -0.223141 1.259549
0.105734 -0.238519 1.268607 0.109604 -0.21823 1.274745
0.072396 -0.107901 0.933715 0.063205 -0.092575 0.935479
0.085993 -0.226631 1.26519 0.059492 -0.222547 1.262337
0.10279 -0.234685 1.265692 0.123297 -0.236572 1.267981
0.106444 -0.240316 1.277245 0.108242 -0.215987 1.284211
0.107693 -0.241056 1.277698 0.100903 -0.213498 1.284431
0.123964 -0.247125 1.273072 0.152487 -0.251082 1.275401
-0.116754 -1.2e-05 0.880443 -0.104597 0.002053 0.885741
0.072051 -0.109452 0.942065 0.06146 -0.094478 0.943459
0.085448 -0.224465 1.263857 0.057777 -0.219565 1.261028
0.111136 -0.237143 1.265694 0.095442 -0.215037 1.269753
0.124465 -0.246071 1.273605 0.15284 -0.250369 1.275812
0.085979 -0.223305 1.264008 0.058211 -0.217827 1.261326
0.111384 -0.236601 1.268079 0.091277 -0.223551 1.269054
0.125001 -0.244936 1.273851 0.153215 -0.249276 1.27602
-0.11778 0.002692 0.880089 -0.106101 0.006058 0.885385
0.086409 -0.222325 1.264838 0.059109 -0.2175 1.262058
0.11095 -0.237502 1.275733 0.088452 -0.230471 1.27474
0.124255 -0.243128 1.273888 0.153538 -0.247966 1.276067
0.085495 -0.220815 1.265975 0.058249 -0.216147 1.263141
0.111451 -0.236425 1.276216 0.087667 -0.23241 1.274234
0.124719 -0.242156 1.274731 0.15406 -0.246202 1.27713
0.085929 -0.219825 1.266784 0.058745 -0.215074 1.263988
0.124102 -0.24005 1.273702 0.152497 -0.244341 1.27594
0.086239 -0.219053 1.268431 0.058776 -0.214732 1.265487
0.124541 -0.239132 1.27475 0.153209 -0.243959 1.276865
0.085595 -0.217056 1.267745 0.057738 -0.212668 1.264739
0.124939 -0.23831 1.276153 0.153597 -0.241882 1.278605
0.086051 -0.216025 1.268417 0.057934 -0.211401 1.265441
0.12414 -0.236614 1.276624 0.154124 -0.240802 1.279086
-0.119148 0.010618 0.877152 -0.111278 0.012149 0.880625
0.086461 -0.215073 1.2694 0.059185 -0.210697 1.266492
0.124643 -0.235548 1.277155 0.154621 -0.240829 1.27931
-0.118575 0.011581 0.876604 -0.110117 0.015788 0.880674
0.085688 -0.213297 1.269572 0.058501 -0.208712 1.266711
0.125212 -0.234334 1.27715 0.154201 -0.239274 1.279272
-0.118198 0.01248 0.876527 -0.109555 0.018306 0.880882
0.086754 -0.099156 0.923731 0.078677 -0.087838 0.92479
0.086191 -0.21218 1.269933 0.058752 -0.207359 1.267102
0.124274 -0.232942 1.278761 0.153394 -0.237378 1.281057
-0.118506 0.013894 0.875859 -0.108141 0.020258 0.880997
0.086761 -0.210948 1.269848 0.059962 -0.20644 1.267038
0.124707 -0.232034 1.279895 0.154197 -0.235769 1.282416
-0.119154 0.015926 0.873775 -0.10763 0.024857 0.879732
0.085897 -0.209324 1.27063 0.058268 -0.204551 1.267744
0.125296 -0.230773 1.279731 0.154238 -0.234288 1.282237
-0.118576 0.017607 0.870988 -0.105373 0.024014 0.877318
0.086322 -0.20834 1.271525 0.058577 -0.203102 1.268747
0.124428 -0.229214 1.280753 0.156282 -0.234082 1.283266
-0.119417 0.018849 0.871605 -0.106374 0.023617 0.877658
0.086764 -0.207326 1.272311 0.058604 -0.202199 1.26945
0.124953 -0.228095 1.281126 0.156402 -0.232891 1.283602
-0.120418 0.020045 0.872604 -0.10768 0.024182 0.878452
0.085805 -0.205853 1.273719 0.058097 -0.201756 1.270643
0.124094 -0.226508 1.282064 0.154559 -0.230664 1.284614
-0.120493 0.02152 0.871386 -0.107672 0.025701 0.877277
0.086471 -0.204456 1.273 0.058615 -0.200718 1.26982
0.124654 -0.225309 1.282146 0.156609 -0.230282 1.28465
-0.121087 0.022839 0.87141 -0.108451 0.026723 0.877188
0.086961 -0.203357 1.273469 0.060551 -0.199643 1.270504
0.12507 -0.224433 1.283451 0.155661 -0.229052 1.285877
-0.121841 0.024113 0.871816 -0.108794 0.027773 0.877742
0.093145 -0.099639 0.943555 0.08901 -0.082982 0.946619
